ply
format ascii 1.0
element vertex 1667
property float x
property float y
property float z
end_header
-0.199433 -0.049159 0.353381
-0.129208 -0.093705 0.169273
-0.085274 0.104211 0.014721
0.200619 -0.171868 -0.080929
0.144307 -0.180234 -0.042067
-0.204613 0.064381 0.375204
-0.134854 0.067763 0.111391
0.162063 0.025662 -0.007810
-0.136367 -0.040863 -0.026783
0.118067 -0.123814 -0.005529
-0.107337 -0.122028 -0.342836
-0.090517 0.108701 0.178833
0.229767 0.146957 -0.079022
0.193801 0.162869 -0.119521
0.198104 0.160452 -0.322420
0.223316 -0.166843 -0.383697
-0.164380 0.081165 0.302629
-0.140914 -0.053044 0.056208
0.221284 -0.060138 -0.019616
0.204172 -0.153460 -0.330336
-0.094786 0.033082 0.169889
0.214672 -0.148908 -0.104658
-0.101739 0.130588 -0.311707
-0.099594 0.109309 -0.233913
-0.128325 -0.096269 -0.047980
-0.089528 -0.090691 0.129055
-0.138552 0.081037 0.239121
-0.021767 -0.049082 -0.001564
-0.098834 -0.058376 0.004428
-0.121167 -0.100235 0.098275
-0.051585 -0.121396 0.008319
-0.131548 -0.128362 0.356518
-0.097568 -0.119058 -0.082567
0.216352 0.166758 -0.215922
-0.009971 -0.152049 -0.056265
0.126412 -0.154749 -0.005705
-0.217380 0.032031 0.381519
0.176358 -0.011054 -0.006886
-0.082398 -0.085639 0.063484
0.097331 0.003271 -0.051376
-0.062267 0.109042 -0.102329
0.144721 0.087786 -0.009188
-0.189091 0.097134 0.397476
0.234479 0.049938 -0.041659
-0.003859 -0.150287 -0.056569
0.202449 0.162846 -0.372323
-0.175123 -0.078390 0.399895
-0.054089 -0.141306 -0.062513
-0.112009 -0.061222 0.327561
0.095867 0.114963 -0.004738
-0.014560 0.019207 -0.004145
-0.056687 -0.061656 -0.078475
0.108306 -0.069698 -0.005184
0.228604 0.152204 -0.120531
-0.085291 0.114760 -0.209832
-0.123766 -0.100636 0.069767
0.226770 -0.115048 -0.058884
-0.159147 0.001789 0.150928
-0.015868 0.138969 -0.061698
0.114709 -0.156087 -0.008848
-0.092995 -0.037103 0.010496
-0.073313 0.092832 -0.220098
-0.130865 -0.044372 -0.003309
0.181839 0.153571 -0.125328
-0.082215 -0.125686 0.007415
-0.082604 0.109481 0.191647
-0.187990 -0.059350 0.320653
-0.096310 -0.037571 0.122307
-0.117393 -0.066834 0.367643
-0.036765 0.108632 -0.121243
0.139149 0.052330 -0.004676
-0.207129 0.025074 0.346526
0.226239 -0.055357 -0.027216
-0.102944 0.064834 0.331641
0.168082 -0.174462 -0.037193
-0.074031 -0.130604 -0.004663
-0.117001 -0.027491 -0.078360
-0.007585 -0.137243 -0.012592
-0.078871 -0.132107 -0.240409
0.124433 0.103660 -0.058152
0.155912 0.161831 -0.021221
-0.128410 -0.007677 0.008462
-0.010328 -0.059471 -0.003241
-0.186961 0.066290 0.397448
0.201735 -0.157487 -0.220137
-0.143553 -0.044749 0.110381
-0.079280 0.126162 -0.128535
-0.179018 -0.129414 0.403238
-0.083153 0.116193 -0.070799
-0.122294 -0.059176 0.376389
0.230213 -0.164503 -0.018722
0.119303 0.036747 -0.052992
0.099742 0.090836 -0.052693
0.187859 -0.140638 -0.215618
-0.073655 0.104269 -0.285255
0.228880 0.158153 -0.062617
0.224965 0.014182 -0.016767
-0.158003 0.027606 0.211827
0.052609 -0.154668 -0.032875
0.202480 -0.165282 -0.387188
0.197342 -0.035272 -0.011824
-0.089923 0.068991 0.231387
-0.177094 0.105962 0.356030
0.216411 0.179154 -0.076113
0.189632 0.157959 -0.101390
0.221257 0.171700 -0.301282
-0.136253 -0.025705 0.016171
0.037348 -0.133311 -0.053125
-0.104229 0.032186 0.072975
-0.103328 0.037238 0.137067
0.191000 -0.149907 -0.129957
-0.027102 -0.128226 -0.010349
-0.122011 0.100561 0.219437
0.073592 0.130157 -0.006386
-0.154178 -0.018854 0.083737
-0.157659 -0.005219 0.120964
0.041635 -0.162254 -0.057753
-0.058331 0.003130 -0.010755
-0.156108 0.015521 0.114276
0.218911 -0.157989 -0.319080
-0.027055 0.029295 -0.006685
0.218522 0.116535 -0.012312
-0.138791 -0.122505 0.339275
-0.165495 0.068897 0.290178
0.205312 0.050678 -0.058477
-0.130259 0.076148 0.201504
0.213904 -0.157977 -0.350172
-0.142717 0.084370 0.252473
-0.150928 -0.025784 0.175743
0.206008 0.155762 -0.281889
0.206036 -0.166016 -0.393081
-0.073396 0.131292 -0.027611
0.030494 0.028493 -0.052867
0.106483 0.096691 -0.008917
0.227692 0.022847 -0.017517
-0.111662 0.115846 0.089019
-0.095568 -0.042745 0.250147
-0.147258 0.060402 0.134366
0.225145 0.168168 -0.103977
0.217797 0.000409 -0.011282
0.130862 -0.144185 -0.003938
0.040014 0.079814 -0.002375
-0.075319 -0.021105 -0.087800
0.228836 0.178654 -0.067049
-0.079286 0.117431 -0.235010
-0.058875 -0.116080 -0.225828
0.107115 0.138112 -0.004213
-0.042856 -0.111711 -0.167977
-0.108593 0.136272 -0.374885
0.224967 -0.176896 -0.041204
-0.094113 0.022137 0.191975
-0.089522 -0.053864 0.131896
-0.088331 0.072595 0.231529
-0.094086 -0.041390 0.190924
-0.125531 0.098538 0.385315
-0.083586 0.015529 -0.010274
0.231168 -0.030810 -0.033189
-0.128500 0.047939 -0.027651
0.230423 -0.043812 -0.054616
-0.126656 -0.102660 0.095927
-0.146468 -0.059961 0.145418
0.108880 -0.037256 -0.056345
0.180665 0.104331 -0.060351
-0.089695 -0.043131 0.051411
-0.100015 0.095415 -0.098194
0.185825 0.173123 -0.038504
-0.186667 -0.072125 0.390902
-0.093735 0.121704 -0.065442
-0.017496 -0.093422 -0.067194
-0.118239 -0.071381 -0.073177
0.079024 0.157030 -0.027708
0.015686 -0.011493 -0.061428
0.200000 0.168466 -0.100385
-0.096532 0.093769 0.267570
-0.098010 -0.109018 -0.086406
-0.183474 0.044855 0.396043
-0.135782 -0.130266 0.363747
0.213345 -0.080416 -0.059296
-0.139503 0.060684 0.123455
0.062752 -0.075681 -0.048916
-0.075940 -0.139147 -0.053929
0.121612 0.051287 -0.003290
-0.188676 0.012915 0.392383
-0.075554 0.106110 0.147025
0.225778 -0.089143 -0.009908
-0.096099 -0.011413 0.150736
-0.023850 -0.065910 -0.070416
0.194722 0.128402 -0.059568
0.075761 -0.059174 -0.055183
-0.068151 -0.111265 0.049966
0.189760 -0.031991 -0.059148
-0.097166 -0.113512 0.183861
0.229146 0.073474 -0.034591
-0.189196 0.074459 0.362011
-0.094412 -0.112376 0.300523
-0.124577 -0.082778 0.027862
0.118152 0.058704 -0.054238
-0.187744 0.047531 0.313922
-0.145178 0.062455 0.229371
0.120340 -0.018314 -0.004575
0.149348 0.148773 -0.054438
-0.125820 0.112399 0.389416
-0.051529 0.142825 -0.060624
-0.123875 -0.095295 0.023406
0.217644 -0.153683 -0.264913
0.232379 0.172126 -0.023139
0.222987 -0.157694 -0.380280
0.201265 -0.155179 -0.243242
-0.015366 0.002685 -0.004447
-0.034133 -0.029791 -0.002982
0.095492 -0.128585 -0.050571
0.227397 0.091287 -0.046943
-0.155970 0.121405 0.345206
0.132912 -0.159973 -0.017108
-0.106592 -0.120675 -0.022357
-0.103179 0.085976 0.333004
-0.074307 0.116508 0.127232
-0.117659 -0.108110 0.366477
-0.089317 0.114399 0.122801
-0.022638 -0.153125 -0.045578
0.228527 0.004462 -0.020186
-0.103649 0.122026 -0.124140
-0.126218 -0.033517 -0.073466
-0.133258 0.044224 0.362108
-0.113526 -0.083002 0.361258
0.085943 -0.007014 -0.050819
-0.052601 0.138452 -0.029539
-0.158315 0.073441 0.272671
0.225926 0.170101 -0.368424
-0.005665 0.143844 -0.023447
0.208546 -0.022683 -0.054202
-0.104970 -0.089276 0.302866
-0.133781 0.102523 0.257304
0.210492 -0.141702 -0.290383
-0.014940 0.117213 -0.010970
0.230676 -0.136068 -0.060018
-0.092296 0.076666 0.177922
0.212645 0.179159 -0.054169
-0.160746 0.010579 0.194257
-0.143000 -0.092865 0.238411
-0.086903 -0.105460 -0.105944
0.187470 -0.007464 -0.062830
-0.103196 -0.064017 0.295395
-0.098671 0.116147 0.095634
-0.113364 -0.041789 0.340097
0.065644 0.154400 -0.058765
0.196988 -0.136116 -0.004929
-0.099970 -0.111655 0.313724
-0.122685 -0.062205 -0.035020
0.014667 -0.158777 -0.061745
0.024611 -0.095743 -0.066249
-0.200925 0.059775 0.349273
0.140854 0.020867 -0.006941
-0.049793 0.107756 -0.155109
-0.176580 0.035861 0.278814
0.123566 -0.094081 -0.052781
-0.075198 -0.111949 -0.240650
0.207270 0.165115 -0.261394
0.227154 0.083993 -0.021476
-0.085233 0.130334 -0.329496
-0.189595 0.040589 0.305658
-0.113704 -0.042294 0.319784
-0.039932 0.142594 -0.047655
0.195623 -0.160020 -0.005238
-0.067248 -0.094591 0.060450
-0.087752 0.073859 0.095845
-0.111620 0.053510 0.001752
0.078303 -0.016698 -0.005742
-0.178099 -0.014840 0.266565
-0.149429 0.054409 0.114152
-0.144000 -0.024916 0.105188
-0.105460 0.106937 -0.086923
-0.102719 0.036173 0.154248
-0.099818 0.040921 0.202075
-0.005104 -0.035502 -0.000740
0.054994 0.060519 -0.049798
0.232301 0.138972 -0.022979
-0.083778 0.056562 0.041876
-0.093966 0.107123 -0.129858
-0.148307 -0.069883 0.194103
0.216377 0.020770 -0.057232
-0.188962 -0.061107 0.325742
-0.121501 -0.116021 0.291086
0.198079 -0.137417 -0.108131
0.116850 0.161701 -0.020328
-0.101361 0.116304 -0.281575
-0.069434 -0.135923 -0.282918
0.003379 0.146581 -0.057839
-0.099795 0.108674 0.295255
0.050695 0.011227 -0.050918
-0.118862 -0.111697 0.115146
0.146337 -0.151011 -0.057781
-0.006309 -0.002928 -0.058224
0.210750 -0.143862 -0.348314
-0.130254 0.059057 0.371900
-0.075753 -0.083004 0.037759
0.125996 0.000692 -0.051984
-0.204749 0.017600 0.342308
-0.070341 -0.115941 -0.260386
0.234989 -0.120622 -0.051187
0.148740 0.085171 -0.054963
-0.104014 -0.114455 0.063937
-0.081460 0.114293 0.149954
-0.145915 -0.047485 0.035727
0.163820 0.043585 -0.007142
-0.118123 0.084142 0.380775
-0.188480 0.030341 0.308895
-0.068347 -0.090959 -0.142791
-0.076011 -0.009474 -0.066420
0.230219 0.137677 -0.064150
-0.043586 0.052176 -0.054688
-0.085747 0.057632 -0.004034
-0.039879 0.136894 -0.056309
-0.058187 0.069608 -0.008399
-0.158563 0.041955 0.209964
-0.030877 -0.106183 -0.056178
-0.101047 -0.100940 0.282295
-0.094770 0.076085 0.304262
-0.110322 0.015935 0.275126
-0.092936 0.062517 0.280042
0.131986 0.108813 -0.055155
0.191520 -0.175364 -0.036063
-0.068762 -0.059366 -0.068932
0.205059 -0.083853 -0.008437
-0.216378 -0.012069 0.359079
-0.010121 0.106864 -0.062234
-0.099334 -0.084151 0.264842
0.213222 -0.086208 -0.064795
-0.030644 -0.122711 -0.147991
-0.109131 -0.072536 0.343099
-0.112037 -0.112907 0.351292
-0.112891 0.115891 0.299010
0.054805 0.142006 -0.012507
-0.093060 0.112278 -0.156390
0.179483 0.147441 -0.133346
-0.150511 -0.071882 0.173365
0.225634 0.173362 -0.013106
-0.180270 -0.098220 0.349395
-0.205247 0.045601 0.372509
-0.099170 -0.132229 -0.325781
-0.130676 0.067203 0.387194
-0.106843 0.011938 0.293671
-0.047220 0.118913 -0.141332
-0.195838 0.022326 0.391603
0.001824 0.144901 -0.020063
-0.129990 0.089806 0.113296
0.193054 0.166162 -0.009596
-0.155401 -0.071171 0.259252
-0.077061 -0.131141 -0.313756
0.215436 -0.111986 -0.078017
-0.101268 0.122444 0.003744
-0.139754 -0.120155 0.394766
-0.092259 0.052791 0.216035
0.220533 -0.002115 -0.019432
-0.102512 -0.117813 -0.391079
-0.092848 -0.049374 0.235729
0.002285 -0.141475 -0.010245
-0.130851 -0.051126 -0.042686
-0.128791 0.065133 0.386251
-0.129448 0.051239 -0.042928
0.221699 0.139403 -0.010115
0.134666 -0.170763 -0.028030
-0.111568 0.113520 0.369829
-0.123874 0.035716 0.009858
-0.115604 0.024303 0.326665
-0.118922 -0.113666 0.384713
-0.086987 -0.099573 0.207702
0.079341 -0.030835 -0.001251
-0.195748 -0.107425 0.372706
-0.096290 0.024890 0.098624
-0.199200 0.070403 0.376081
0.191490 0.158163 -0.211495
-0.058214 -0.104036 0.025771
0.011734 -0.112441 -0.006567
-0.100777 0.042512 0.257202
-0.105771 -0.113064 0.078524
0.119785 0.143448 -0.004691
0.200535 -0.072169 -0.062006
0.199550 0.147578 -0.288473
0.117765 -0.097568 -0.006675
0.051573 -0.117908 -0.050003
-0.157906 0.067881 0.244759
0.191496 0.152402 -0.097362
-0.119174 0.008221 0.318594
-0.089069 0.119088 -0.230124
0.003823 0.121727 -0.060941
0.137222 0.007868 -0.054321
-0.083518 -0.070420 0.128135
-0.064797 0.106653 -0.162858
-0.103557 0.118729 -0.177741
0.167258 0.171908 -0.033674
-0.128651 0.109897 0.276871
-0.083314 0.002775 0.004326
-0.086228 -0.049736 0.190936
0.218894 -0.113181 -0.014990
-0.087165 -0.115729 0.194309
0.207690 -0.161352 -0.283074
-0.035698 0.109991 -0.011711
-0.084029 0.069251 0.037140
-0.101327 0.105326 0.329692
0.230267 0.023736 -0.032958
0.219759 -0.147332 -0.011736
-0.142713 -0.086371 0.399968
-0.159044 -0.089349 0.290706
-0.088417 0.115612 -0.169177
-0.125741 -0.073503 -0.028537
-0.097515 0.083067 0.236044
-0.066941 0.107331 0.046522
-0.126943 -0.090362 0.109668
-0.034834 -0.146636 -0.031183
-0.118366 -0.123211 0.328246
-0.167947 -0.076338 0.288981
0.166152 0.160424 -0.059620
0.222026 0.162988 -0.261205
0.021573 0.048378 -0.005323
-0.099330 -0.087525 0.218667
0.229781 0.168275 -0.199908
-0.137630 -0.093075 0.186983
-0.120477 0.076409 0.372806
-0.091295 -0.009242 0.015861
-0.179467 0.121202 0.403093
0.210757 -0.157985 -0.363422
0.025697 -0.101329 -0.049488
-0.147814 -0.064902 0.390633
-0.090881 0.043839 0.094628
-0.035757 -0.148591 -0.041952
-0.110625 -0.026462 0.307699
-0.089919 0.009350 -0.002865
0.215721 -0.032717 -0.014940
-0.187862 0.060767 0.329824
-0.055984 -0.117194 -0.204405
0.193640 0.137092 -0.011925
-0.073550 -0.125231 0.060897
0.155228 0.156999 -0.007018
0.083555 -0.161721 -0.059046
-0.098932 -0.101289 0.307622
-0.096511 -0.100008 0.325596
-0.064093 0.122483 -0.165180
0.214738 0.149679 -0.083029
-0.125896 0.092552 0.061472
0.206663 0.153109 -0.136314
0.043483 0.149487 -0.020409
-0.080616 -0.100621 -0.146285
-0.022604 0.150834 -0.053666
0.209938 -0.151179 -0.161883
0.083847 -0.053960 -0.002080
0.181360 -0.143937 -0.072261
-0.090618 -0.117322 0.138885
-0.092646 0.048225 0.018377
-0.038335 -0.116162 -0.158736
-0.058521 -0.142250 -0.043831
0.202778 -0.007779 -0.012221
-0.108465 0.103118 0.349606
0.151601 -0.034830 -0.004158
0.151879 -0.071687 -0.002471
0.214410 -0.173834 -0.012880
-0.114965 -0.030460 0.323955
-0.174408 -0.022527 0.263746
-0.213949 -0.033946 0.387475
0.207193 -0.161592 -0.330756
-0.189480 0.076095 0.342854
-0.058234 -0.122023 -0.003898
-0.109895 0.113373 -0.347218
-0.029868 0.116565 -0.008646
0.125637 -0.027236 -0.055519
-0.082809 -0.112609 -0.206230
0.225524 -0.176350 -0.185571
-0.134038 0.019292 -0.050352
-0.147551 -0.129881 0.346575
0.052800 -0.021796 -0.050740
-0.173271 0.081553 0.403187
-0.063462 0.100391 -0.232299
0.044741 -0.024368 -0.002189
-0.211558 -0.065453 0.386242
-0.124814 -0.025770 0.352185
-0.135946 0.079392 0.166080
-0.088855 -0.110368 -0.168957
-0.059840 -0.093022 -0.104945
-0.101843 0.103853 -0.223264
-0.102148 -0.018098 0.230390
0.165812 -0.135306 -0.052546
-0.113929 0.066140 0.014738
0.228227 0.001883 -0.028890
0.027419 -0.152464 -0.059126
-0.190420 -0.036892 0.314760
-0.064309 0.098977 0.058264
-0.105228 0.117890 -0.387705
-0.085153 0.082147 0.103590
0.024792 -0.069559 -0.002778
-0.159556 -0.104770 0.401029
0.085145 0.039829 -0.003115
-0.068755 0.112289 0.142342
-0.178782 -0.081770 0.332366
0.208291 -0.064230 -0.061177
0.161490 0.172223 -0.031449
-0.100270 0.110763 -0.375440
-0.189501 0.104908 0.367584
0.188509 0.056526 -0.056407
-0.090234 -0.027545 0.064151
-0.082835 -0.119518 0.029058
-0.133471 -0.098773 0.256875
-0.125014 0.023142 -0.085763
0.201586 0.161825 -0.344372
0.193827 -0.017098 -0.056159
-0.095496 -0.031805 0.250734
-0.101693 0.120220 -0.259818
0.109873 0.162872 -0.033725
-0.091628 -0.025572 0.093789
-0.135445 0.054191 0.031220
-0.196656 0.035703 0.357736
-0.086689 0.089342 -0.015148
-0.098637 -0.137283 -0.381509
-0.087191 -0.125317 -0.214455
-0.109057 -0.093077 0.374979
0.053374 -0.153008 -0.057271
-0.125709 -0.113172 0.236414
-0.208548 -0.063085 0.374684
-0.091001 -0.111875 0.288894
-0.076801 -0.132661 -0.291903
-0.127553 0.066069 0.031889
-0.089762 0.000943 0.182175
-0.139692 0.002612 0.369130
-0.093905 0.055645 0.107514
-0.088848 -0.032279 0.044429
-0.125607 0.034816 0.008913
0.208180 -0.150969 -0.346393
-0.120986 0.024710 -0.068372
-0.067891 -0.122608 -0.154978
-0.127666 -0.018775 -0.021945
0.235841 0.009288 -0.039401
0.142294 -0.011886 -0.058765
-0.150764 -0.128918 0.380117
-0.168911 0.048361 0.396019
0.055506 -0.163326 -0.058029
-0.097849 0.006189 0.228365
-0.090598 0.050240 0.017662
-0.127545 -0.015632 -0.063056
-0.096492 -0.022305 0.221376
-0.173106 -0.022505 0.246930
-0.086051 -0.096288 0.191457
0.205535 0.106099 -0.064171
-0.096361 0.076775 0.259840
0.139727 -0.127242 -0.054474
0.089203 0.157934 -0.056383
-0.091857 -0.115078 -0.223819
-0.123527 -0.108697 0.168218
-0.080195 -0.073142 -0.002705
0.058285 -0.126745 -0.004876
0.175995 0.073238 -0.056823
0.066932 0.078810 -0.004426
-0.132928 0.013721 -0.035187
-0.091356 0.046127 0.213702
-0.139576 0.052381 0.151787
-0.069264 -0.126104 0.024935
0.209037 -0.163764 -0.306117
-0.091026 0.050836 0.063666
-0.056412 -0.018625 -0.061556
0.198785 -0.074191 -0.007549
-0.132857 0.075574 0.183814
-0.192296 0.048351 0.338698
-0.070688 -0.131000 -0.239469
-0.122449 -0.018361 0.336573
0.171326 0.002647 -0.057656
-0.097626 0.084947 0.290326
-0.121298 -0.000631 -0.066036
-0.116171 -0.120809 0.143194
-0.110477 0.120837 0.027320
-0.042106 0.075427 -0.052667
-0.086360 -0.008587 -0.011356
0.226559 -0.161827 -0.256725
0.232199 -0.176752 -0.321771
0.185715 -0.117973 -0.005760
-0.096919 0.115420 -0.079876
-0.027267 -0.157533 -0.030666
-0.172640 0.114194 0.335612
0.227058 0.170789 -0.317507
-0.026154 0.008719 -0.007840
-0.105197 -0.020351 0.134587
-0.058823 -0.140117 -0.060808
-0.147946 -0.126567 0.319088
0.035298 0.141540 -0.053689
-0.139253 0.132167 0.341898
0.188684 -0.168075 -0.064002
0.145764 -0.139660 -0.003054
0.018111 -0.069272 -0.050112
0.201779 -0.164649 -0.182322
0.175928 0.145537 -0.049416
0.212525 -0.058906 -0.014174
0.180619 0.017377 -0.010704
0.004331 -0.158627 -0.055524
-0.074647 0.107306 0.081627
-0.064674 -0.122589 -0.279550
-0.153551 0.049278 0.211474
0.064559 -0.071780 -0.003089
-0.056932 0.041326 -0.054924
-0.145674 -0.055044 0.085648
-0.167177 -0.071154 0.269094
-0.167098 0.108600 0.400158
-0.045641 0.133130 -0.023814
0.001786 0.066584 -0.055537
-0.084958 0.130938 -0.276371
-0.079118 0.113969 -0.234276
-0.082996 0.110776 -0.301271
-0.114410 0.108680 0.104329
-0.087498 -0.065817 0.118102
-0.214638 -0.046765 0.380544
0.027828 -0.035366 -0.050470
0.072044 0.120436 -0.004414
0.195237 0.150805 -0.241715
0.230449 0.160985 -0.025675
-0.130616 -0.012763 -0.063712
-0.110484 -0.097306 0.346884
0.193725 0.145810 -0.003787
-0.110240 0.116757 0.003568
0.231454 0.033744 -0.053604
-0.086254 0.009638 0.057095
-0.166660 0.121446 0.375086
-0.061527 0.097042 -0.189921
-0.089339 -0.061813 0.105337
-0.127130 0.122877 0.376349
0.203053 -0.174311 -0.035045
-0.134822 0.016142 -0.025428
-0.161217 0.064458 0.244868
-0.119270 0.116849 0.360265
-0.097132 0.134818 -0.394962
0.188788 -0.102484 -0.069858
-0.103240 0.089092 0.339453
-0.083501 0.064113 0.093344
-0.060087 0.123370 0.028998
-0.144278 0.118851 0.310279
0.161311 -0.158007 -0.008111
0.200357 -0.112195 -0.009973
0.220022 0.105991 -0.062265
0.222662 0.152669 -0.267067
0.001713 -0.152900 -0.040112
-0.085133 -0.062399 0.051847
-0.215770 -0.002252 0.372503
0.219817 -0.152706 -0.169419
0.208433 -0.164047 -0.403020
-0.132997 -0.095313 0.179245
-0.099916 -0.082766 0.245782
-0.092385 -0.141709 -0.368606
-0.099980 -0.119387 0.295230
-0.157815 -0.080818 0.258241
-0.112238 0.115361 0.262158
-0.109315 0.112741 0.348063
-0.181402 -0.043418 0.297257
0.169229 -0.074144 -0.063924
0.229624 0.039811 -0.005014
-0.094024 0.012838 0.215530
-0.093265 -0.125906 -0.231191
-0.188842 0.003918 0.295270
-0.085349 -0.055000 0.006273
-0.087809 0.103206 -0.348167
-0.060805 0.066482 -0.060301
0.185470 -0.123841 -0.052963
-0.069250 0.105034 -0.191990
0.140909 -0.168184 -0.054216
0.034712 0.074384 -0.050630
-0.076762 0.139660 -0.050712
-0.100156 -0.126839 -0.328431
0.202518 0.166331 -0.163077
0.227198 -0.093183 -0.024072
-0.085756 -0.121458 -0.044717
-0.095845 0.122075 -0.000893
-0.078956 0.129740 0.008869
-0.145911 0.102267 0.286801
0.195692 -0.022441 -0.015422
-0.152223 -0.032974 0.078772
-0.149671 -0.037108 0.163383
-0.071078 0.044213 -0.010273
0.166362 0.153131 -0.068516
0.059768 0.109586 -0.005509
-0.131875 -0.013052 -0.037718
0.142015 0.159299 -0.059099
-0.109533 -0.089073 -0.073348
0.227426 -0.043103 -0.029962
0.061913 0.020365 -0.005086
0.031040 -0.045255 -0.052142
-0.109629 -0.053758 0.348808
-0.134878 0.068670 0.056100
0.162303 0.169511 -0.056681
-0.052686 -0.122220 -0.187653
-0.150882 -0.072980 0.215916
-0.026785 -0.010366 -0.002710
-0.096038 0.065051 0.172427
-0.137815 -0.076930 0.145352
-0.098644 -0.089980 -0.092964
-0.125967 -0.106264 -0.052764
-0.077860 -0.056677 -0.064310
-0.173064 0.088212 0.323520
0.047235 -0.068039 -0.049761
-0.141783 0.100801 0.397468
-0.090839 0.061943 0.211521
-0.117972 0.102940 0.152289
0.187200 -0.167077 -0.013665
0.218387 -0.098629 -0.009025
0.209262 0.167899 -0.387553
-0.169996 0.051611 0.265091
0.168477 -0.098128 -0.006647
-0.090645 0.112060 0.220076
-0.142127 -0.100991 0.289193
-0.065152 -0.118865 0.031175
-0.096282 -0.008895 0.161778
0.193260 -0.172179 -0.039819
0.205949 0.035518 -0.010760
0.163753 -0.116929 -0.058622
-0.139640 -0.019113 0.376659
-0.020581 -0.067061 -0.005736
0.217080 0.170012 -0.352359
-0.088085 0.039132 -0.010635
-0.175136 -0.057448 0.274626
-0.204628 -0.077131 0.383852
-0.001616 0.079250 -0.004578
-0.149056 0.028623 0.172437
0.121410 0.160065 -0.015710
0.116463 -0.142981 -0.001635
-0.098653 -0.120312 -0.354073
-0.160082 -0.005623 0.193700
-0.097118 -0.088743 -0.022405
-0.195604 0.086297 0.368516
-0.053564 -0.124704 -0.177722
0.068173 0.157901 -0.056039
0.051612 -0.056469 -0.060148
-0.110481 -0.103259 0.046124
-0.068465 0.107121 -0.212835
-0.098661 0.038960 0.242282
-0.101994 -0.116413 0.221493
-0.099239 0.109605 0.283807
-0.112044 0.132038 -0.341315
-0.096451 -0.130214 -0.261313
-0.194071 -0.051353 0.325962
-0.094503 0.118669 0.046244
0.221570 0.161676 -0.255366
-0.080511 0.113695 0.077995
0.215491 0.162063 -0.336923
0.205261 -0.147110 -0.206282
0.042119 0.065132 -0.003797
0.141115 0.114929 -0.008946
-0.093341 0.094018 0.251634
-0.115729 -0.107110 0.213887
-0.124349 0.019066 0.336607
-0.114513 -0.102409 0.078881
0.087529 0.154667 -0.036567
0.158248 -0.134735 -0.003315
-0.092415 0.040695 0.086377
-0.174217 -0.002618 0.225205
0.117605 0.015798 -0.056691
-0.095114 0.001798 0.150607
0.063364 0.092131 -0.059673
-0.201559 0.062820 0.341484
-0.144814 0.116782 0.302297
0.064665 -0.043442 -0.001523
-0.119789 0.108221 0.250850
0.219017 0.171499 -0.175794
0.205975 -0.143937 -0.008388
-0.172032 0.116995 0.387984
-0.047431 0.116174 -0.150795
-0.094669 -0.118595 0.032473
-0.039665 0.028480 -0.056561
0.153987 0.013645 -0.056768
-0.173510 0.026612 0.253864
0.157237 0.070164 -0.009836
-0.104841 -0.110824 0.327498
-0.211541 0.012057 0.351123
-0.099684 0.112873 -0.139897
-0.095907 -0.123105 0.154353
0.223601 0.177339 -0.053198
-0.087944 0.000615 0.098054
-0.100014 0.046345 0.194175
-0.105071 -0.004093 0.272260
-0.107714 0.120791 0.333889
-0.152616 0.022054 0.395344
0.034767 -0.156980 -0.036791
-0.103314 0.015266 0.258979
0.118492 0.019588 -0.005128
0.105289 -0.147858 -0.057659
-0.179527 0.105624 0.387728
0.222637 0.073472 -0.015389
-0.157505 -0.021916 0.183952
0.024777 -0.158063 -0.051754
0.214352 -0.008789 -0.058481
-0.098237 -0.116232 0.047691
-0.090249 0.108415 0.236389
-0.079076 -0.096631 0.017158
-0.117938 0.110001 0.239209
0.067459 -0.144703 -0.062509
-0.105774 -0.049942 -0.070524
-0.061988 0.122469 -0.005539
-0.082700 0.133577 -0.092934
-0.064959 0.099337 -0.187958
-0.100915 -0.011736 0.209191
-0.162973 0.022939 0.389370
0.222196 -0.165077 -0.015626
0.080661 -0.154154 -0.017582
-0.155712 0.001251 0.091624
-0.132328 0.080195 -0.025325
-0.217900 0.020257 0.378174
0.179077 -0.156466 -0.184223
-0.180284 -0.059802 0.301681
-0.133067 -0.066518 0.025070
-0.132076 -0.053142 0.003750
-0.106189 -0.118967 0.279566
-0.142562 -0.064008 0.113726
0.168859 0.166822 -0.054800
0.226722 0.154735 -0.392244
0.234870 0.161266 -0.040887
0.219355 -0.077339 -0.016523
0.219912 0.135953 -0.065242
-0.093051 -0.045912 0.026579
0.208374 0.131570 -0.010990
-0.181097 -0.075830 0.327400
-0.127399 -0.078999 0.063174
0.232083 0.129950 -0.021540
-0.091777 -0.097170 0.260778
-0.104269 0.108681 0.212203
0.069763 -0.167046 -0.052373
0.031745 0.148211 -0.058593
0.115091 -0.013971 -0.053714
0.221693 0.099700 -0.061446
-0.133348 -0.017611 0.363409
0.020371 0.125416 -0.049260
-0.082641 -0.113571 -0.262119
0.218555 -0.155668 -0.371225
0.178764 -0.167081 -0.065160
-0.078627 0.110548 0.065631
-0.093112 0.029136 0.074840
-0.100187 -0.047040 0.263054
-0.063614 -0.130348 0.009988
0.113791 0.167110 -0.054681
0.086120 0.132666 -0.050499
-0.195232 -0.014855 0.389149
0.179233 0.017459 -0.057698
0.222095 -0.166829 -0.010068
-0.148992 -0.032124 0.143319
-0.068110 -0.125309 0.105045
0.001191 -0.115942 -0.004279
-0.097868 0.112032 0.267702
0.064366 0.151669 -0.021272
-0.089963 -0.134610 -0.358377
-0.065343 -0.134095 -0.026829
-0.120783 -0.076042 0.387611
-0.101172 0.112826 0.244923
-0.147207 -0.015269 0.040665
-0.106907 -0.099652 -0.060405
-0.073830 0.093680 -0.097997
0.183886 0.152128 -0.003889
0.138099 -0.158842 -0.058537
-0.105792 -0.088518 0.332564
-0.099384 -0.079990 0.292901
-0.066162 -0.118635 -0.240766
0.150270 -0.009012 -0.004694
-0.153372 -0.067190 0.235216
-0.166259 0.057527 0.255367
-0.101895 -0.036785 0.265836
0.053424 -0.038896 -0.051374
-0.109059 0.114942 -0.308318
0.008158 -0.032553 -0.061869
-0.166427 0.061877 0.397326
-0.097396 0.135885 -0.336718
-0.182882 0.072087 0.333865
0.234662 -0.097891 -0.052631
-0.114044 0.082026 -0.061007
0.114002 -0.036894 -0.001391
-0.147704 0.034285 0.149695
-0.100828 -0.117862 0.257753
-0.055408 0.064044 -0.011268
-0.105081 -0.075003 -0.011663
0.058935 0.143580 -0.057466
0.227277 -0.167462 -0.090476
-0.018914 0.140920 -0.014089
0.225503 0.160854 -0.234718
-0.087671 -0.118241 0.152353
0.201198 0.153734 -0.236666
0.199249 -0.153764 -0.232767
-0.156845 0.014959 0.145379
0.155288 0.124267 -0.018119
-0.076961 -0.131079 -0.050521
-0.046425 0.047660 -0.067555
-0.132631 -0.011173 0.016256
0.031828 -0.083809 -0.002487
0.090825 0.125124 -0.005040
-0.132305 0.004550 -0.002847
0.158814 0.004876 -0.007498
-0.176860 0.067855 0.327250
0.217943 -0.042465 -0.014953
-0.122991 -0.080977 -0.043601
0.151446 -0.039732 -0.058679
0.047129 0.158412 -0.065971
-0.166255 -0.125308 0.362742
0.214492 -0.020054 -0.014490
-0.113538 0.081466 0.358666
0.209046 -0.135278 -0.220819
-0.199880 -0.081657 0.369442
-0.122093 -0.086901 0.083295
-0.098833 0.035429 -0.073794
-0.073330 -0.100433 0.091496
-0.127575 -0.099659 0.142057
-0.099234 0.077234 0.245113
-0.147942 0.055006 0.392408
-0.112860 0.122497 0.047716
-0.097114 -0.025304 0.269699
0.140331 -0.160368 -0.064756
0.216254 -0.064388 -0.062423
-0.059699 -0.141254 -0.041969
-0.103541 0.102338 -0.074878
-0.094007 0.103157 0.269246
-0.111243 0.076904 0.350895
-0.103128 0.089849 0.314413
-0.090965 -0.136745 -0.346353
0.036740 -0.157964 -0.015903
0.238611 -0.009984 -0.042747
0.231340 0.130375 -0.051233
-0.150765 0.063830 0.177717
-0.071941 -0.126803 -0.106568
-0.091031 -0.043433 0.218584
-0.096896 0.056910 -0.075873
-0.055555 -0.102085 -0.000698
-0.077410 0.064505 0.001352
-0.180188 -0.014023 0.268586
-0.143746 -0.018636 0.079478
-0.046515 -0.106306 -0.007323
-0.067956 -0.107049 0.142383
0.130471 0.052258 -0.055932
-0.098524 -0.107590 -0.018943
0.196253 0.152722 -0.214190
-0.180526 -0.051881 0.286742
-0.181421 -0.080050 0.335539
-0.154049 0.069704 0.257039
0.132317 -0.098101 -0.006766
-0.106082 0.090682 0.350290
0.186346 0.158612 -0.187093
-0.100551 -0.016692 0.171996
-0.099594 -0.040192 0.165215
0.191867 0.122594 -0.009577
0.204559 -0.029061 -0.012868
-0.003252 0.055513 -0.054414
0.221168 -0.152743 -0.274304
-0.022602 0.043185 -0.058955
0.061293 -0.005236 -0.054600
0.198844 0.168451 -0.119156
-0.133660 0.061492 0.084855
0.125817 -0.059384 0.001005
-0.096576 -0.113385 0.007485
-0.124287 0.042843 -0.010431
0.150009 -0.091862 -0.008927
0.173462 0.163800 -0.058529
0.225471 -0.056245 -0.066125
-0.053027 -0.107912 -0.178949
-0.103190 0.116531 0.309078
-0.003481 0.128228 -0.052538
0.023069 0.148484 -0.028145
-0.084687 -0.121431 -0.075626
-0.144358 0.070234 0.239544
-0.087610 -0.000089 -0.069931
0.215603 0.166640 -0.301131
-0.098386 0.123053 0.059881
0.232777 -0.130351 -0.035719
0.033139 -0.035132 -0.000947
0.213176 -0.143842 -0.127772
0.053737 -0.101098 -0.005864
-0.052979 -0.139317 -0.012745
-0.087061 -0.080435 0.063555
-0.088814 0.112848 -0.324336
-0.079857 0.113898 0.098526
-0.133355 -0.125313 0.381944
-0.139209 -0.115556 0.309569
0.087641 -0.072056 -0.053659
0.134636 -0.026696 -0.002684
-0.108320 0.102914 0.163280
-0.003870 0.051567 -0.003236
-0.176735 -0.097179 0.401341
0.222550 -0.154999 -0.209890
-0.082957 0.106138 -0.314931
-0.080935 0.107664 -0.260385
-0.015968 -0.078343 -0.058427
-0.202858 -0.002943 0.387646
-0.085463 0.069996 0.140555
-0.148647 0.059672 0.392153
0.147208 -0.109900 -0.008659
-0.171976 -0.011860 0.234716
0.001251 0.085620 -0.051856
-0.095304 0.100244 -0.377926
-0.064992 -0.119547 -0.267433
-0.069359 0.113928 0.080674
-0.188591 0.095318 0.362564
-0.044528 0.143960 -0.032328
0.199991 0.144434 -0.161792
0.025878 0.157163 -0.050822
-0.110862 -0.105838 -0.009615
-0.084286 0.108800 0.225236
0.232038 -0.080067 -0.042613
-0.078507 0.140039 -0.058673
-0.092738 -0.101840 -0.131573
-0.110942 0.102647 0.057396
0.032768 -0.007817 -0.002947
-0.140249 0.021277 0.380409
0.020959 -0.161071 -0.049642
-0.155008 -0.060967 0.206373
0.221814 0.160038 -0.286259
0.224765 -0.126467 -0.017265
0.220265 0.157262 -0.130668
0.054980 0.086481 -0.048871
-0.139115 -0.088607 0.225010
-0.135759 0.119153 0.313075
0.173580 -0.169524 -0.056230
-0.109880 0.133129 -0.045458
0.205075 -0.154448 -0.369582
-0.074911 0.099751 0.174699
0.225226 -0.173440 -0.405464
-0.021112 -0.012038 -0.063410
-0.065474 0.013553 -0.061782
-0.085742 -0.127314 -0.347171
0.208007 -0.165941 -0.006043
0.051616 -0.060081 0.001659
0.134801 0.000785 -0.005933
-0.130524 0.077143 0.130017
0.193755 0.160769 -0.230253
-0.135052 -0.116020 0.273166
0.193491 -0.003157 -0.009868
0.033918 -0.001063 -0.051831
-0.199918 -0.091281 0.397446
-0.025930 0.139716 -0.021826
0.004148 0.150698 -0.035035
-0.179920 -0.116282 0.381248
-0.092306 -0.116034 -0.066648
-0.098896 -0.129171 -0.361564
-0.084964 -0.115563 0.248737
0.211511 0.163510 -0.003695
-0.112372 0.087913 -0.064446
-0.107983 0.136181 -0.389641
-0.134379 -0.083579 0.195667
-0.088697 0.094763 0.234710
-0.066854 -0.110861 0.091206
-0.066454 -0.083236 -0.108492
-0.075485 -0.100363 0.049424
0.074398 0.098125 -0.005689
-0.131405 -0.089891 0.153276
0.205416 -0.162697 -0.274258
0.136699 -0.154586 -0.010042
-0.123300 -0.043894 -0.003650
0.220926 -0.168513 -0.230133
-0.117340 0.069840 -0.067841
-0.092616 0.015489 0.034204
0.194445 -0.173574 -0.060782
-0.079346 -0.079830 0.011455
0.096245 0.031092 -0.006733
0.004581 0.152400 -0.044346
-0.110510 -0.132635 -0.381217
-0.183697 -0.037347 0.281537
-0.097374 -0.125297 -0.327037
-0.202519 0.068362 0.387654
-0.052784 0.113918 -0.092783
-0.110638 0.125981 -0.315806
0.202591 -0.151741 -0.150520
-0.030162 -0.103387 -0.008416
0.182543 0.161216 -0.106708
-0.110622 0.091570 0.046170
-0.153309 0.032852 0.174778
0.031161 0.094907 -0.050278
0.202774 0.165746 -0.312515
0.128966 0.163461 -0.030636
-0.035948 0.101219 -0.053133
-0.047744 -0.096187 -0.186232
0.226832 0.166241 -0.175120
0.132033 0.083626 -0.054344
-0.096275 0.058137 0.265445
-0.095663 0.115193 -0.353122
-0.180049 -0.107954 0.356108
0.051143 0.015777 -0.005773
-0.153825 -0.060570 0.187780
-0.105755 -0.116393 0.247899
0.209217 0.149514 -0.002422
-0.134323 -0.078019 0.062531
0.188050 -0.068314 -0.003150
-0.166718 -0.115006 0.396287
-0.082220 -0.065195 0.085854
-0.136484 -0.087699 0.202567
0.161770 -0.167372 -0.056351
0.225249 -0.169094 -0.353305
0.195159 0.132789 -0.059173
0.157160 -0.169650 -0.020364
-0.143084 -0.071816 0.165725
0.233013 0.017856 -0.047828
-0.085896 0.065890 0.121158
0.191583 0.071752 -0.009205
-0.110060 0.108772 0.369695
-0.075158 -0.119952 -0.283879
-0.113490 0.104715 0.204840
-0.201297 -0.078926 0.347258
-0.087868 -0.044586 0.121687
0.233627 -0.108994 -0.053814
-0.036188 -0.144506 -0.053229
-0.123186 -0.112608 0.371202
0.221595 -0.041946 -0.057033
-0.080749 -0.034062 -0.006484
-0.094107 0.063543 0.133820
-0.154372 -0.022052 0.380233
-0.118754 -0.013440 0.324202
-0.194300 -0.012633 0.310811
-0.102885 0.114550 0.319429
-0.124342 0.089503 0.164804
-0.051937 -0.088224 -0.003113
-0.084831 0.068490 0.059410
0.215570 -0.027612 -0.056274
0.038395 -0.141483 -0.007485
-0.210775 -0.048904 0.383262
-0.086384 -0.120163 0.085644
0.198081 -0.161114 -0.295157
0.230297 0.037437 -0.038126
0.026622 0.123459 -0.003450
-0.145439 0.051422 0.099216
-0.086335 -0.113874 0.050219
-0.087823 -0.099015 -0.074800
0.182992 0.152837 -0.181288
-0.082592 0.124234 0.110005
-0.151041 0.126001 0.362620
-0.001833 0.103161 -0.048863
0.215163 -0.154155 -0.172027
-0.075656 0.104763 -0.126741
-0.134850 0.043261 -0.068539
0.130111 0.161491 -0.007265
-0.056084 0.142698 -0.070685
-0.170906 0.060751 0.305540
-0.094160 -0.120243 -0.333253
-0.116653 -0.062221 0.358301
0.204351 -0.155389 -0.262303
-0.094266 0.057304 0.248980
0.133146 0.137206 -0.001877
0.231584 0.110100 -0.026833
0.129594 0.035506 -0.005434
-0.092460 -0.117245 0.264415
-0.126154 -0.098087 0.165334
-0.089720 -0.105601 -0.149469
0.033129 -0.167257 -0.028521
0.190216 0.097201 -0.012964
0.154384 -0.086688 -0.059317
-0.089680 -0.125738 -0.227772
-0.058928 -0.119574 -0.053395
0.223881 -0.176337 -0.082199
0.208191 0.055566 -0.010388
0.147514 0.012571 -0.009465
-0.150633 0.048742 0.193061
0.101286 0.164862 -0.057785
0.220391 0.065328 -0.016660
-0.132740 0.064743 0.162627
0.059810 0.121826 -0.048588
-0.107520 0.097497 0.360802
-0.090644 0.092171 0.218359
-0.162815 -0.016124 0.206255
0.048288 0.054436 -0.001726
0.099888 -0.152933 -0.007086
-0.067007 0.131062 -0.080948
-0.139803 0.063721 0.108347
-0.189947 0.022536 0.298261
-0.086847 -0.107166 0.223168
-0.129810 0.045610 -0.037486
0.199864 -0.048764 -0.007422
-0.093372 0.005014 0.126836
0.019715 -0.156665 -0.023688
-0.090187 0.080815 0.072036
-0.208345 -0.007922 0.342410
-0.069206 -0.098966 -0.000980
-0.090262 0.130530 -0.358057
0.001394 -0.045271 -0.056227
-0.136027 0.056400 0.058887
-0.126882 0.028848 -0.034881
0.108499 0.006476 -0.005559
-0.097573 -0.130426 -0.298754
0.194883 0.158979 -0.213218
0.149348 -0.138853 -0.054348
-0.096523 -0.032295 0.228997
0.202333 0.168296 -0.025692
-0.075150 -0.128451 -0.178047
-0.081600 0.126306 -0.290644
0.235864 -0.144136 -0.055704
-0.108244 -0.103074 -0.052679
-0.145225 -0.019823 0.107043
0.062147 0.047723 -0.000655
0.089128 0.037725 -0.054042
0.220111 0.158410 -0.351539
-0.171863 -0.091754 0.327086
-0.112683 0.007162 0.309000
-0.080018 0.111951 0.092136
-0.178902 -0.058164 0.396123
-0.057930 0.077347 -0.006096
-0.142649 0.116719 0.395458
-0.086741 0.118676 0.075712
0.228963 -0.113931 -0.031607
-0.094535 0.008612 0.099567
-0.106927 -0.120673 0.281463
-0.203254 -0.024447 0.341141
-0.147761 -0.039595 0.130499
-0.079798 -0.134784 -0.031594
0.213792 -0.174068 -0.131161
0.219030 -0.139171 -0.313322
-0.089299 -0.127756 0.075435
-0.030896 0.068456 -0.071868
-0.086551 0.085976 0.053540
0.194876 -0.090490 -0.061446
-0.048393 -0.002199 -0.005682
-0.128227 -0.010939 0.353871
-0.130901 -0.096748 0.233277
-0.064097 0.100565 -0.216801
0.135117 -0.141912 -0.056950
0.094370 -0.098768 -0.001744
0.108519 0.159967 -0.060437
-0.199394 0.060794 0.386028
0.045592 -0.010424 -0.053409
0.183215 0.008343 -0.011372
0.096750 0.142968 -0.006559
-0.131726 0.011188 -0.048389
-0.226363 -0.015948 0.387088
-0.089094 -0.041602 -0.097239
-0.082868 -0.120636 -0.125712
-0.106311 -0.015709 0.276311
-0.177800 0.092545 0.393200
-0.092341 -0.031911 -0.065946
0.175044 -0.149575 -0.082652
-0.187869 -0.049130 0.308006
-0.093622 0.017533 0.115440
-0.086675 -0.096416 0.111761
0.222226 0.161144 -0.240654
0.222010 0.153969 -0.093863
-0.196991 0.014374 0.337389
-0.170040 -0.102888 0.325347
-0.157310 -0.106690 0.312873
0.042320 0.155688 -0.059582
0.215137 -0.000305 -0.056887
0.170370 0.060473 -0.008013
0.184423 0.151406 -0.045240
0.086301 -0.145523 -0.004954
0.082309 0.062785 -0.055436
-0.079260 0.136107 -0.308306
0.210453 -0.168426 -0.361509
0.178235 -0.166892 -0.010860
0.210395 0.014756 -0.056666
0.163111 -0.054467 -0.060924
-0.147658 0.027913 0.110944
-0.069253 0.105687 -0.255154
0.002802 0.067002 -0.003869
0.209137 0.175542 -0.096116
-0.168354 0.020680 0.233826
-0.151903 -0.129704 0.383914
0.228346 -0.137281 -0.023901
-0.199103 -0.057625 0.350706
0.185479 -0.133525 -0.004267
0.209872 0.077953 -0.064041
0.217230 0.102934 -0.014681
0.222132 -0.164969 -0.280747
-0.086525 -0.065155 0.167191
0.164235 0.079115 -0.056807
0.233843 0.108116 -0.043469
-0.066153 0.081293 -0.074025
0.138069 0.165401 -0.057067
-0.132419 -0.031453 0.373912
0.190743 -0.144404 -0.147459
0.191995 0.153777 -0.196514
0.005707 0.116614 -0.005080
-0.201517 -0.029982 0.346660
-0.074613 -0.132686 -0.263456
0.073716 0.151672 -0.037674
0.202440 0.158350 -0.358452
-0.098310 -0.083892 0.257969
-0.207626 0.057012 0.383025
0.044920 0.147185 -0.013246
-0.098487 -0.086774 -0.090743
-0.174894 0.081077 0.317305
-0.063473 0.132091 -0.071909
-0.123880 0.088404 0.084467
0.204265 -0.000623 -0.056745
0.197104 -0.046852 -0.062444
-0.127467 0.122339 0.320181
-0.099761 -0.119579 -0.200607
-0.099398 -0.026056 -0.072976
-0.113387 -0.109696 0.217147
0.230505 -0.080499 -0.064774
-0.167850 0.060183 0.289978
0.196498 0.059776 -0.055408
0.220680 0.158824 -0.208470
-0.081003 0.115867 -0.247480
-0.100315 -0.118332 -0.302113
0.001162 -0.127656 -0.053340
-0.097100 0.116188 -0.364189
0.217231 0.039884 -0.012681
0.205911 -0.166489 -0.184220
0.233097 0.018311 -0.021978
-0.089824 -0.051153 0.161507
0.193432 -0.146720 -0.168195
-0.012000 -0.025857 -0.052925
-0.130442 0.042623 0.040783
-0.157069 0.008085 0.160783
-0.087324 0.125001 -0.245365
-0.157954 -0.120973 0.331553
0.150478 -0.175199 -0.047193
-0.142218 0.042215 0.104010
0.172757 -0.163139 -0.021219
-0.065684 0.104930 -0.185691
-0.074897 0.139513 -0.050749
-0.137652 -0.006651 0.004920
0.017589 0.079849 -0.003840
0.197176 0.180613 -0.050851
-0.079921 -0.132658 -0.091079
0.009420 0.139828 -0.055430
-0.125825 0.110085 -0.027574
0.109347 0.152288 -0.055770
0.236187 0.139675 -0.052509
0.216096 -0.167494 -0.305791
-0.040670 -0.121608 -0.071045
0.108274 0.154546 -0.055001
0.158966 -0.005190 -0.059947
-0.137542 0.064135 -0.046112
0.039601 -0.006273 -0.004654
-0.120029 -0.065495 -0.061680
-0.152096 -0.009691 0.110767
-0.096145 -0.059561 0.275623
-0.088531 -0.117065 -0.320795
0.207175 -0.144981 -0.270813
0.075455 0.099302 -0.049868
0.087295 -0.123932 -0.004076
-0.216406 0.051160 0.389095
-0.085348 0.113127 -0.121486
-0.074077 -0.104031 0.116202
-0.153643 -0.045300 0.193625
-0.127945 -0.116427 0.316699
-0.209331 0.030622 0.381964
-0.104892 0.105331 0.199835
-0.179413 -0.117833 0.382234
-0.099597 -0.071603 0.222461
0.232657 -0.101434 -0.040386
-0.163619 -0.132155 0.374168
-0.084414 0.126645 -0.310293
0.197216 -0.140853 -0.219784
0.199164 -0.160914 -0.218267
-0.076038 0.120183 -0.210461
-0.141709 0.124846 0.331196
0.171208 0.083676 -0.008669
-0.063436 -0.042718 -0.060589
-0.113683 -0.126693 -0.376012
-0.195242 -0.028695 0.391740
-0.094996 0.020265 0.235955
-0.190075 0.037963 0.323867
0.097318 0.110388 -0.050284
-0.195970 -0.069375 0.339864
-0.194101 -0.050851 0.335513
0.163148 -0.020877 -0.001115
0.181844 -0.168055 -0.112261
-0.193227 0.100893 0.390581
-0.139643 0.037140 0.063972
-0.168478 -0.036185 0.238877
-0.093149 0.045577 0.189783
0.227417 0.062801 -0.025628
-0.147134 0.062251 0.194241
-0.078466 0.111404 -0.139497
-0.089342 0.126543 -0.137726
0.233307 -0.078833 -0.032899
-0.115075 -0.123030 -0.362647
0.210315 0.080529 -0.012051
-0.116578 -0.106684 0.392473
-0.041583 0.044907 -0.004266
0.064098 -0.155767 -0.011061
-0.019673 -0.154111 -0.005125
0.143852 -0.076683 -0.002162
-0.169932 0.041022 0.246400
0.034487 -0.161767 -0.034984
-0.094106 -0.112638 -0.041187
-0.216833 -0.025398 0.364051
-0.166981 0.100464 0.333454
0.201328 -0.127371 -0.092293
-0.084198 0.118067 0.010981
-0.112522 0.113384 -0.012685
-0.090749 -0.111846 -0.176920
0.090345 -0.118465 -0.050091
-0.093728 -0.057765 0.196542
0.057646 0.060515 -0.002793
-0.204895 0.007748 0.339940
0.073941 0.008020 -0.004902
-0.036486 0.013070 -0.056649
-0.157821 -0.003870 0.146552
0.204224 0.160473 -0.395094
-0.104438 -0.101320 0.338012
-0.082173 0.119602 -0.293493
0.220409 -0.163723 -0.200907
-0.183247 0.029695 0.283116
0.231732 0.138689 -0.056673
-0.081733 -0.130077 -0.276700
0.073106 -0.154315 -0.050896
0.223231 -0.168042 -0.293137
-0.132885 0.011882 0.371987
0.179136 -0.088249 -0.061144
-0.058939 -0.128917 -0.104448
-0.174007 -0.037447 0.400094
-0.123502 -0.107468 -0.032255
-0.177428 -0.069121 0.287519
-0.132176 0.077374 0.023146
-0.009131 0.041783 -0.004843
-0.179988 0.017751 0.256759
0.044946 0.041730 -0.053620
-0.085877 -0.100276 0.175442
-0.135481 0.119551 0.395881
0.217590 -0.173457 -0.127586
-0.056860 0.113200 -0.004755
0.213024 -0.040104 -0.061353
-0.123749 -0.086660 -0.057850
-0.091963 -0.047579 0.104641
-0.070729 -0.095684 -0.122082
-0.041138 -0.053363 -0.005118
0.210795 -0.142856 -0.007061
0.085407 0.149203 -0.019027
0.154047 -0.149111 -0.003372
0.182142 -0.112315 -0.062554
-0.079158 0.095160 0.116063
-0.083364 0.081110 0.141874
0.074936 0.137060 -0.008263
0.226030 0.166204 -0.208388
-0.146245 0.094933 0.270602
-0.148587 0.010807 0.074084
-0.064948 -0.126482 -0.199861
0.203966 0.102806 -0.011128
-0.119650 0.085011 0.095394
-0.154878 0.036226 0.195009
-0.133628 0.061682 0.016982
-0.140163 0.041731 0.375832
-0.154702 0.070491 0.397884
-0.131632 -0.088059 0.101935
-0.119333 -0.053868 0.364479
-0.096121 0.008846 -0.075673
-0.092418 0.082883 0.194553
0.231203 0.063446 -0.051302
-0.151230 0.028473 0.170255
-0.079025 -0.113590 0.161105
0.180324 -0.083361 -0.006035
-0.134958 -0.055908 0.387325
-0.066842 0.117356 0.059537
0.000522 -0.158601 -0.033878
0.202318 -0.153840 -0.399809
-0.091891 -0.082680 0.178715
-0.104284 -0.121957 0.011515
-0.108031 -0.050361 0.310066
-0.084929 0.019396 0.047829
-0.192389 -0.034475 0.320696
-0.216992 0.011415 0.364802
-0.139122 -0.072724 0.114143
-0.096898 -0.007886 0.131266
-0.100387 0.078614 0.211612
-0.143844 0.048384 0.145591
-0.127437 -0.042401 0.378987
-0.106113 -0.093942 0.357208
0.110830 0.047436 -0.057137
-0.084603 0.118009 -0.167167
-0.086141 -0.096225 -0.110210
-0.157263 0.064511 0.218486
-0.085995 -0.115097 0.089975
0.199192 0.147225 -0.195367
0.028333 0.134513 -0.012283
-0.121405 -0.119753 0.285198
-0.100484 -0.113312 -0.003476
0.164741 0.161692 -0.052835
0.226876 0.159145 -0.174035
0.190432 0.156226 -0.147718
-0.108707 0.116719 0.007753
-0.086592 0.121787 -0.321250
-0.014665 0.145216 -0.030691
0.225321 0.042271 -0.055465
-0.078821 -0.042491 0.002712
-0.097657 0.019819 0.139390
-0.097357 -0.091574 0.246731
0.228582 0.110534 -0.050290
-0.098495 -0.118105 -0.370869
0.230509 0.152105 -0.019767
-0.079270 -0.125158 -0.063202
-0.177555 0.091369 0.349551
-0.165359 -0.009009 0.214220
-0.153317 0.096716 0.405628
0.045939 0.123340 -0.010319
0.221704 -0.153228 -0.262691
0.119350 0.126912 -0.010712
-0.098472 0.100178 0.315573
-0.056358 0.035247 -0.007177
-0.124286 0.092646 0.070615
-0.092000 0.023547 0.087375
-0.112504 -0.121842 0.346421
-0.055467 0.140360 -0.044793
-0.135363 0.050264 0.385207
-0.091564 0.002865 0.067607
-0.128960 -0.005607 -0.047654
0.042560 0.153545 -0.035749
-0.129542 0.017160 -0.075977
-0.184164 -0.041634 0.395206
0.145881 0.069898 -0.059060
0.213535 0.139685 -0.060631
-0.087714 -0.015536 0.092312
-0.074307 -0.129221 0.084219
0.224812 -0.162446 -0.331438
0.167543 0.122542 -0.060217
-0.041408 0.098020 -0.005769
-0.142222 -0.074810 0.192733
-0.120732 -0.115091 0.155194
-0.059915 -0.036520 -0.004236
-0.162310 -0.054055 0.220717
-0.103726 0.052275 0.303828
-0.082321 -0.094398 0.136657
0.188640 0.143072 -0.071531
0.080500 0.158697 -0.053223
0.098290 -0.162525 -0.029897
-0.129841 0.066673 -0.056181
-0.091714 0.082025 0.065051
-0.164211 -0.114809 0.343273
0.173545 0.141588 -0.081049
-0.062620 -0.106382 -0.198811
-0.099185 -0.018677 0.255190
-0.121661 0.069914 0.357441
-0.094186 0.118880 0.023750
-0.116912 -0.119273 -0.390243
0.195891 -0.164687 -0.115266
-0.048063 -0.039484 -0.065922
0.192948 -0.129343 -0.004111
0.113756 -0.065686 -0.054834
-0.091346 -0.120415 -0.342520
-0.196063 0.095175 0.375345
-0.091110 -0.109996 -0.066939
-0.137962 -0.036453 -0.003833
-0.159607 0.053515 0.225868
0.232752 0.000504 -0.051826
-0.098911 0.101017 -0.012519
-0.034724 -0.147913 -0.056760
0.225694 0.079755 -0.054694
0.224513 -0.165682 -0.157916
-0.154361 0.119345 0.323401
-0.101654 0.111178 -0.215305
0.142030 0.145728 -0.003256
-0.073082 0.028343 -0.011892
0.118632 0.110519 -0.010246
0.199467 -0.147197 -0.241839
-0.125583 0.020346 0.030540
-0.174952 -0.083705 0.320419
-0.198344 -0.067024 0.388804
-0.106027 0.104553 -0.187891
-0.136025 -0.103260 0.399266
-0.106275 0.033414 0.269685
-0.084891 0.107567 0.195159
-0.019677 -0.144890 -0.055914
0.141670 0.158177 -0.012009
0.226752 0.116918 -0.021445
-0.089432 -0.008112 0.076614
-0.123245 0.002336 0.343480
-0.190299 -0.080452 0.349225
-0.169504 0.006575 0.227489
0.200247 -0.096755 -0.008109
-0.064639 0.114269 -0.181019
0.065718 0.076552 -0.050110
-0.190649 -0.016228 0.301287
0.078669 -0.112791 -0.001121
0.220840 0.162919 -0.302207
-0.107099 0.107997 0.249769
-0.098699 0.047596 0.130105
-0.086431 -0.116605 -0.131104
-0.102548 0.115330 -0.292548
0.166973 -0.156718 -0.066188
-0.091700 0.113170 0.267605
0.179080 0.160742 -0.007585
-0.113770 0.077522 -0.071339
0.204704 -0.138675 -0.248427
-0.093770 0.114528 -0.200794
-0.087767 -0.071728 0.107536
-0.160878 0.003501 0.178446
0.174740 -0.156456 -0.007020
-0.115899 -0.128597 -0.398158
-0.091108 -0.126029 -0.293617
0.215619 0.159683 -0.322833
0.205788 -0.147429 -0.272222
-0.149695 -0.092089 0.263845
-0.131754 -0.004528 -0.023698
-0.100811 -0.118423 0.136598
0.228596 0.175051 -0.037681
-0.109202 0.028156 0.289266
-0.091374 0.112618 -0.081979
-0.126760 -0.085517 -0.039469
0.223898 0.170809 -0.155780
-0.176119 -0.043595 0.265730
0.219500 0.150221 -0.299676
-0.095587 0.073842 0.171081
-0.044056 0.082330 -0.007713
0.219372 0.067452 -0.062515
-0.090095 -0.033932 0.198444
-0.117814 0.120041 0.379023
-0.063721 -0.044818 0.001398
0.226167 -0.160684 -0.342276
0.214204 -0.166695 -0.110244
-0.196996 0.071092 0.367490
-0.112294 0.093929 0.364163
0.051403 -0.094830 -0.004138
-0.046517 0.104436 -0.053617
0.051700 0.131357 -0.048217
0.200967 0.171935 -0.404202
-0.068516 -0.132771 -0.301557
-0.198631 -0.102279 0.391454
0.031051 -0.122699 -0.006358
0.216502 0.158660 -0.372574
-0.222359 -0.020132 0.373359
0.153851 0.158895 -0.060028
-0.093571 -0.035636 0.110353
-0.099338 0.138714 -0.382984
-0.086636 -0.119166 -0.136056
0.209390 0.029448 -0.053335
-0.095372 0.133979 -0.337967
-0.007623 0.093122 -0.003671
0.041626 -0.107011 -0.005298
-0.150347 0.016541 0.072637
0.094654 0.025805 -0.053368
-0.029908 -0.057860 -0.063272
-0.137737 -0.022324 -0.002271
-0.063634 0.116727 0.016652
-0.082730 -0.116132 -0.163959
-0.119419 0.043234 0.349577
-0.102889 0.028683 0.227291
-0.039885 0.132208 -0.060114
-0.102423 0.025866 0.250329
-0.199743 -0.064070 0.369866
0.030439 0.042874 -0.004817
0.222850 -0.072773 -0.022116
0.200523 0.170252 -0.382697
0.083581 -0.085120 -0.005166
-0.119911 0.101152 0.124922
-0.198411 0.088695 0.389033
-0.110267 0.103777 0.073047
0.205809 0.164510 -0.259701
0.221035 0.171779 -0.100737
-0.046065 -0.065296 -0.055756
-0.091186 -0.127146 0.118770
-0.155423 -0.053523 0.395393
-0.176766 -0.005947 0.243547
-0.206906 -0.084828 0.378720
0.137979 0.026185 -0.055361
0.135990 0.168088 -0.055881
-0.056048 0.017086 -0.007172
-0.132077 0.114399 0.265922
-0.129540 0.006073 -0.013462
-0.131451 -0.009210 -0.070205
-0.161201 -0.064616 0.239551
-0.024338 0.059619 -0.007686
0.029013 0.128112 -0.011289
0.167213 0.026405 -0.059544
-0.157648 -0.049296 0.204383
0.059320 -0.138146 -0.005054
-0.148399 0.000584 0.047546
0.016640 0.095012 -0.002045
-0.164560 -0.059729 0.224308
-0.154158 0.101944 0.321732
-0.187508 0.016829 0.288440
-0.208011 0.040717 0.383212
0.232784 -0.018792 -0.053798
-0.154206 -0.053930 0.158194
0.039605 -0.153501 -0.019423
0.172509 -0.021856 -0.059848
0.226589 0.170297 -0.028666
0.209995 -0.169121 -0.046265
-0.101369 -0.065232 0.335396
0.217685 -0.157192 -0.219975
0.092155 -0.157518 -0.039128
0.186498 0.092632 -0.060184
-0.066197 -0.016931 -0.007893
-0.217915 0.021530 0.376016
-0.089376 0.102031 0.009659
-0.106232 -0.063984 0.318739
-0.199848 0.002207 0.314793
0.177894 -0.153233 -0.002831
