ply
format ascii 1.0
element vertex 1679
property float x
property float y
property float z
end_header
0.161062 -0.065635 0.002560
0.190374 -0.175079 -0.241740
-0.144856 0.062737 0.159209
0.191093 -0.142946 -0.005890
-0.131280 0.175709 -0.259323
-0.119297 0.172724 -0.098375
-0.131998 -0.123111 0.024908
-0.136660 -0.137908 0.139239
-0.178467 0.143730 0.235801
-0.035732 -0.065631 0.002129
-0.138467 -0.101583 0.056265
-0.166642 -0.144840 0.156266
-0.108858 -0.175246 0.075380
-0.159361 -0.180525 0.311077
-0.150275 -0.139122 0.110496
0.195638 0.181298 -0.100374
-0.024147 -0.169262 -0.004822
0.037756 -0.178751 0.006432
-0.209348 0.039666 0.372561
0.091853 -0.024100 0.001545
-0.125706 -0.120305 0.091761
0.046508 -0.005801 -0.014396
-0.089846 0.117236 -0.015272
0.058406 0.104517 0.003989
-0.196017 0.126698 0.370315
0.209136 0.053632 -0.017858
-0.012351 -0.171229 -0.003956
0.178154 0.181528 -0.335354
-0.186755 -0.101514 0.369243
-0.077486 -0.185710 0.001525
-0.161734 -0.073043 0.276652
0.018564 0.119517 0.010557
-0.041962 0.015176 0.002546
-0.063158 -0.091280 -0.018082
0.042737 -0.088654 0.006843
0.197339 0.159438 -0.010682
-0.113616 0.160146 -0.007595
-0.171274 -0.112295 0.167390
0.191326 -0.093936 -0.020727
-0.177679 0.019649 0.181757
-0.036021 0.153077 -0.008036
0.037983 -0.188330 0.003884
-0.125839 -0.057510 0.038588
-0.104072 0.154626 -0.102188
-0.158958 -0.065817 0.084113
0.152705 0.163304 -0.019009
-0.132208 -0.188032 0.110566
-0.137779 0.194787 0.186465
-0.198246 -0.078977 0.303982
-0.142086 -0.050431 0.116604
-0.161773 -0.092040 0.303539
-0.082811 0.136351 -0.007591
0.073316 0.060156 0.006178
-0.198871 0.022100 0.336246
0.207276 -0.051290 -0.004434
-0.164013 0.070155 0.281983
0.113558 -0.203055 0.003453
-0.125971 -0.185028 0.063979
-0.131683 -0.047047 0.014780
-0.062660 -0.172272 0.006795
-0.112745 -0.170574 -0.141819
0.053965 0.089433 -0.019932
0.093526 0.209393 0.005663
-0.152564 -0.017466 0.051205
-0.020152 -0.075491 0.006884
-0.190054 0.085650 0.375063
0.175935 -0.176773 -0.083960
-0.174226 -0.051923 0.137918
-0.112483 0.172387 0.013877
-0.186193 -0.155677 0.346640
-0.159330 0.168058 0.116227
-0.171264 -0.080057 0.333455
0.177610 -0.157589 0.003850
0.063830 0.025912 -0.012301
0.034636 0.080579 -0.015405
0.193000 -0.164923 -0.125737
-0.123225 0.165869 -0.129021
0.203977 0.163132 -0.006480
0.149749 0.009549 0.002794
-0.182357 0.050466 0.217264
0.011933 -0.195176 0.004058
0.186558 -0.179173 -0.351383
0.101182 -0.057501 0.000993
-0.147802 0.091452 0.199128
-0.189242 0.145557 0.335981
0.192870 0.187973 0.001155
0.173953 0.167059 -0.023858
0.189615 0.186300 -0.192521
-0.163829 -0.030960 0.101696
0.028878 -0.144864 -0.011881
-0.142534 0.054706 0.078279
-0.143389 0.063869 0.115308
0.153284 -0.147880 -0.013362
-0.083796 -0.157682 0.007316
-0.172137 0.171864 0.238197
0.002312 0.141467 0.007849
-0.166007 -0.013182 0.122102
-0.173842 0.020079 0.150673
0.002487 -0.179702 -0.001669
-0.076389 -0.008210 0.004417
-0.172768 0.035559 0.144199
0.196679 -0.175065 -0.256449
-0.062298 0.026263 0.002595
0.120112 0.122568 0.008442
-0.172817 -0.182337 0.300781
-0.188156 0.119320 0.284619
0.173559 0.053715 -0.018948
-0.177358 0.159650 0.225429
0.190076 -0.175517 -0.305173
-0.179678 0.140610 0.242479
-0.176197 -0.011725 0.176820
0.185624 0.169221 -0.262080
0.190448 -0.177869 -0.356622
-0.113307 0.200328 0.080126
-0.020335 0.019165 -0.012743
0.034176 0.111522 0.009144
0.175255 0.024330 0.001234
-0.154450 0.192973 0.165220
-0.149281 -0.054099 0.216472
-0.170211 0.098590 0.162723
0.199927 0.178165 -0.011513
0.145254 0.003806 0.003479
0.029966 -0.156039 0.005627
-0.018596 0.087909 0.004254
-0.081291 -0.044981 -0.013891
0.198720 0.186188 0.000105
-0.101355 0.166775 -0.140429
-0.093449 -0.157226 -0.100561
0.031813 0.144563 0.009176
-0.088413 -0.154754 -0.031622
-0.151764 0.180966 -0.336855
0.174176 -0.194755 0.013578
-0.148501 0.025429 0.178011
-0.137447 -0.090054 0.125242
-0.148968 0.104848 0.198766
-0.147564 -0.039212 0.175507
-0.166779 0.107372 0.320030
-0.105831 0.013838 0.005128
0.204556 -0.036277 -0.008522
-0.157693 0.074760 0.069165
0.200618 -0.033574 -0.024595
-0.172048 -0.117026 0.182774
-0.175705 -0.070860 0.165388
0.058740 -0.050230 -0.016995
0.115162 0.097426 -0.017680
-0.128932 -0.068779 0.069730
-0.125301 0.104615 0.015283
0.122714 0.209696 0.003079
-0.188547 -0.093850 0.366657
-0.141545 0.173677 0.065170
-0.041015 -0.124448 -0.017842
-0.131098 -0.079809 0.013042
0.041618 0.203111 0.005600
-0.026606 -0.025646 -0.014205
0.182906 0.192157 -0.008908
-0.152302 0.119201 0.228246
-0.146513 -0.106745 0.073351
-0.193773 0.055675 0.374054
-0.164842 -0.173958 0.311576
0.155605 -0.077719 -0.019418
-0.166672 0.123708 0.155444
0.023668 -0.101500 -0.010619
-0.089498 -0.195461 0.018617
0.054222 0.055101 0.007528
-0.194258 0.007716 0.374770
-0.133538 0.157316 0.141505
0.145507 -0.090460 0.004754
-0.145009 -0.016749 0.136117
-0.062472 -0.066541 -0.020787
0.131545 0.111466 -0.024074
0.032414 -0.075297 -0.014120
-0.124859 -0.164725 0.127920
0.143244 -0.035138 -0.019467
-0.152742 -0.193137 0.204705
0.203531 0.071656 -0.006728
-0.199520 0.102057 0.339204
-0.143072 -0.157899 0.250182
-0.155358 -0.115719 0.102867
0.067532 0.051742 -0.017529
-0.195399 0.073034 0.299180
-0.181530 0.120613 0.232655
0.056259 -0.027536 0.003738
0.085249 0.142816 -0.017506
-0.172363 0.159306 0.324664
-0.061467 0.176674 -0.005911
-0.149976 -0.139242 0.088463
0.197404 -0.178403 -0.107633
0.154261 0.201616 0.003244
0.199193 -0.182467 -0.336362
0.183098 -0.171843 -0.097351
-0.036985 -0.005440 0.002717
-0.056671 -0.046438 0.000958
0.077655 -0.133129 -0.011066
0.206463 0.081955 -0.006745
-0.179643 0.178560 0.309997
0.065856 -0.196772 0.004369
-0.133228 -0.163904 0.057304
-0.163723 0.078212 0.268552
-0.131571 0.162955 0.149050
-0.163691 -0.141864 0.299265
-0.132597 0.204546 0.168314
-0.044175 -0.183036 -0.000276
0.175944 0.005595 0.000845
-0.121706 0.165668 0.007630
-0.129197 -0.052079 0.011794
-0.173988 0.039761 0.319663
-0.160991 -0.104644 0.293944
0.037651 -0.016743 -0.014090
-0.102126 0.199120 0.052961
-0.184552 0.128375 0.273423
0.190506 0.188724 -0.318975
-0.054172 0.191167 0.004718
0.166879 -0.031736 -0.019615
-0.150150 -0.113058 0.250262
-0.179376 0.168887 0.253636
0.187213 -0.164231 -0.261135
-0.069654 0.139794 0.010645
0.203668 -0.117163 -0.014741
-0.141264 0.116832 0.165804
0.155011 0.205440 0.007680
-0.183009 0.030644 0.210338
-0.175058 -0.143399 0.225926
-0.143686 -0.133379 0.082701
0.114703 -0.013691 -0.015598
-0.154407 -0.077662 0.235129
-0.136092 0.200059 0.158219
-0.165713 -0.046370 0.297201
0.025033 0.174515 -0.007147
0.098879 -0.142560 0.003741
-0.140733 -0.165335 0.266370
-0.152314 -0.052006 0.081349
-0.008899 -0.169271 -0.003770
-0.013503 -0.110453 -0.020942
-0.200958 0.085733 0.339840
0.080752 0.021785 0.003396
-0.092267 0.145575 -0.004495
-0.191122 0.079870 0.275957
0.071069 -0.111927 -0.017571
-0.097028 -0.156769 -0.046850
0.196743 0.172521 -0.111648
0.150493 0.087329 0.003467
-0.134543 0.176588 -0.297178
-0.194847 0.061268 0.293515
-0.163071 -0.051836 0.275305
-0.072083 0.200732 0.015792
0.087880 -0.175297 0.000989
-0.128122 -0.151567 0.105486
-0.135924 0.121325 0.101359
-0.120687 0.074746 0.011558
0.017030 -0.027517 0.005432
-0.189164 -0.011802 0.252890
-0.169656 0.088507 0.144383
-0.171280 -0.034883 0.135942
-0.128620 0.106714 0.000317
-0.141843 0.069395 0.141739
-0.150900 0.042681 0.172802
-0.034385 -0.052283 0.002911
0.003422 0.045204 -0.013812
0.149566 0.146680 0.004573
-0.133147 0.083492 0.055927
-0.130208 0.128727 0.012635
-0.178211 -0.097986 0.196039
0.189295 0.019796 -0.022612
-0.193879 -0.088883 0.298019
-0.161214 -0.192910 0.271285
0.143860 -0.126850 -0.017211
0.063689 0.204732 0.004976
-0.134781 0.168801 -0.163161
-0.122117 -0.167662 -0.179084
-0.020346 0.175649 -0.011569
-0.153458 0.157436 0.253576
0.007528 0.000278 -0.014493
-0.164425 -0.162188 0.169070
0.112680 -0.128449 -0.007976
-0.032766 -0.010380 -0.011376
0.194673 -0.168566 -0.325604
-0.173196 0.054850 0.314952
-0.123104 -0.118022 0.085665
0.071700 -0.013510 -0.013892
-0.200987 0.007197 0.338633
-0.105417 -0.159081 -0.127748
0.205789 -0.117011 -0.004120
0.085479 0.074964 -0.019919
-0.170075 -0.130071 0.190813
-0.130122 0.202157 0.167582
-0.167084 -0.051620 0.111484
0.085543 0.049294 0.005012
-0.171358 0.094006 0.323820
-0.196381 0.042255 0.296329
-0.095524 -0.115139 -0.014288
-0.080404 -0.023959 -0.012420
0.197794 0.123333 -0.018056
-0.070769 0.035551 -0.017712
-0.104426 0.068826 0.008240
-0.059711 0.145800 -0.004579
-0.089837 0.089213 0.007103
-0.182943 0.073511 0.221902
-0.024490 -0.122872 -0.008382
-0.145926 -0.137245 0.239163
-0.159244 0.084099 0.257603
-0.157338 0.024114 0.236677
-0.157411 0.070829 0.232577
0.072959 0.090774 -0.023387
0.129216 -0.191192 0.005541
-0.094454 -0.065317 -0.013559
0.116474 -0.096657 0.007234
-0.204958 -0.022867 0.358030
-0.037011 0.099597 -0.023221
-0.147570 -0.114574 0.225389
0.171178 -0.088496 -0.020353
-0.076883 -0.149515 -0.017033
-0.156171 -0.098882 0.276571
-0.155589 -0.153155 0.293559
-0.155095 0.194611 0.270518
-0.017717 0.168989 0.004217
-0.119402 0.145306 0.025399
0.153185 0.151258 -0.015118
-0.173145 -0.085800 0.176138
0.125009 0.199117 0.002404
-0.194823 -0.138256 0.315334
-0.202298 0.050415 0.355370
-0.135339 -0.171869 -0.250144
-0.175513 0.076619 0.335867
-0.161984 0.009923 0.241537
-0.083604 0.156167 -0.025484
-0.194982 0.022850 0.381837
-0.041065 0.190672 0.003799
-0.167067 0.157089 0.177722
0.099562 0.195791 0.003900
-0.186386 -0.111950 0.249524
-0.121520 -0.168908 -0.269548
0.177696 -0.104795 -0.023334
-0.136422 0.185948 0.067574
-0.174130 -0.142210 0.342114
-0.150628 0.069880 0.185258
0.163899 -0.006295 0.002934
-0.147371 -0.177019 -0.370103
-0.148076 -0.074938 0.195260
-0.037338 -0.168959 0.007115
-0.151001 -0.076514 0.063079
-0.176350 0.062575 0.331722
-0.138181 0.080675 0.040165
0.119100 0.135902 0.005416
0.058657 -0.205191 0.002169
-0.164626 0.135864 0.296385
-0.139810 0.045981 0.045855
-0.169591 0.026694 0.276619
-0.167787 -0.148043 0.316014
-0.140072 -0.132209 0.176083
0.027427 -0.044603 0.005459
-0.197868 -0.136391 0.348733
-0.141064 0.047273 0.107289
-0.201336 0.096278 0.366227
0.191184 0.166159 -0.183731
-0.121498 -0.150312 0.082540
-0.043215 -0.128428 0.004155
-0.156831 0.056896 0.220215
-0.152801 -0.183501 0.165376
0.035620 0.168045 0.007092
0.134972 -0.083479 -0.023120
0.185827 0.174727 -0.163304
0.045395 -0.105055 0.006540
0.033734 -0.127055 -0.013866
-0.183701 0.110230 0.248529
0.139733 0.178269 -0.001814
-0.165597 0.007259 0.266911
-0.116147 0.166918 -0.004703
-0.014023 0.113098 -0.021623
0.081492 -0.005545 -0.013800
-0.137068 -0.120584 0.129526
-0.108134 0.133849 0.001001
-0.120119 0.161019 0.008153
0.107425 0.208894 -0.001254
-0.165678 0.199448 0.250240
-0.107702 -0.006522 0.007392
-0.142673 -0.088751 0.165131
0.157741 -0.109670 0.007623
-0.133087 -0.194629 0.204358
0.189581 -0.177218 -0.257499
-0.090056 0.125450 0.015462
-0.118157 0.106994 0.027230
-0.155989 0.144216 0.264459
0.209601 0.035350 -0.005587
0.150311 -0.146188 0.008786
-0.176183 -0.111712 0.356378
-0.185465 -0.126555 0.269164
-0.114041 0.166103 -0.015719
-0.153600 -0.094970 0.074098
-0.149569 0.120755 0.209918
-0.122866 0.161165 0.095383
-0.162162 -0.128539 0.152240
-0.071475 -0.192636 0.017045
-0.153801 -0.181956 0.294127
-0.189621 -0.112141 0.263602
0.126069 0.179665 -0.003525
0.192179 0.182517 -0.147989
-0.022004 0.056304 0.006150
-0.144301 -0.113146 0.185781
0.197573 0.183802 -0.072978
-0.177305 -0.115764 0.235308
-0.171312 0.076589 0.309403
-0.132189 -0.034522 0.038787
-0.190911 0.154853 0.354248
0.188974 -0.176741 -0.336725
0.014168 -0.117623 -0.013383
-0.176358 -0.078806 0.354987
-0.143048 0.063551 0.112903
-0.068195 -0.191797 0.014000
-0.163923 -0.034476 0.261683
-0.118687 0.005270 0.011963
0.152653 -0.033222 0.003433
-0.198585 0.087423 0.303588
-0.093770 -0.155580 -0.078964
0.087484 0.137877 0.003354
-0.129457 -0.177200 0.116701
0.048632 0.171302 0.006486
0.057838 -0.176175 -0.004279
-0.151087 -0.136197 0.255055
-0.153919 -0.134535 0.273720
-0.102666 0.167793 -0.021063
0.180168 0.134617 -0.026654
-0.169955 0.124481 0.147761
0.153276 0.137454 -0.019240
-0.010829 0.199674 0.005363
-0.115158 -0.135048 -0.000904
-0.031992 0.186439 -0.004473
0.196169 -0.166357 -0.028775
0.033301 -0.072395 0.004270
0.120038 -0.130088 -0.017479
-0.137154 -0.170113 0.157393
-0.123588 0.064710 0.041732
-0.083377 -0.160372 -0.034082
-0.075814 -0.195407 0.014530
0.122706 -0.012975 0.000871
-0.165727 0.121789 0.290070
0.076193 -0.047285 0.002140
0.075829 -0.087277 0.004141
0.143511 -0.199402 0.007747
-0.165233 -0.037320 0.275673
-0.189919 -0.036648 0.252852
-0.204399 -0.040486 0.380363
0.191381 -0.177256 -0.242377
-0.195995 0.102023 0.323030
-0.113567 -0.160183 0.046210
-0.145863 0.172329 -0.308861
-0.050180 0.139782 0.006581
0.077252 -0.043718 -0.017363
-0.136438 -0.150575 0.046072
0.191586 -0.179797 -0.064576
-0.158067 0.029549 0.072798
-0.174823 -0.179671 0.305487
0.010666 -0.037722 -0.012340
-0.183512 0.101285 0.370697
-0.105895 0.157503 -0.124667
-0.000412 -0.037260 0.005628
-0.206948 -0.084358 0.368972
-0.175856 -0.041976 0.313419
-0.175290 0.133360 0.222707
-0.101455 -0.150433 -0.012588
-0.077663 -0.111417 -0.017814
-0.115731 0.159626 -0.062975
-0.152443 -0.017284 0.198988
0.099938 -0.122739 -0.018693
-0.123590 0.104703 0.040162
0.200783 0.008381 -0.002718
0.008922 -0.162042 -0.005521
-0.199676 -0.050306 0.301987
-0.126865 0.137442 0.098657
-0.151605 0.172195 -0.364480
-0.132902 0.122253 0.099776
-0.011326 -0.088276 0.007640
-0.179596 -0.130711 0.357438
0.032770 0.036025 0.006762
-0.135352 0.172271 0.161793
-0.190753 -0.124124 0.302598
0.147742 -0.057428 -0.020068
0.063592 0.209982 -0.001451
-0.151493 0.177680 -0.338630
-0.199442 0.133854 0.349882
0.139785 0.053619 -0.017517
-0.135345 -0.038722 0.083845
-0.134569 -0.190587 0.123069
-0.175850 -0.153838 0.242868
-0.127494 0.026291 -0.002811
0.188753 0.176782 -0.317490
0.146258 -0.023082 -0.014133
-0.152333 -0.031549 0.215772
-0.121375 0.169034 -0.166385
0.051258 0.206645 -0.006699
-0.142176 -0.035500 0.096259
-0.161153 0.089670 0.127028
-0.196886 0.043416 0.347357
-0.088075 0.119481 0.008490
-0.146854 -0.178012 -0.356306
-0.110420 -0.161713 -0.067431
-0.165660 -0.119570 0.305664
0.026782 -0.164432 -0.003698
-0.170883 -0.178733 0.239656
-0.204478 -0.073028 0.356640
-0.144770 -0.158523 0.238943
-0.120148 -0.163574 -0.221839
-0.152631 0.119292 0.095657
-0.147207 0.008960 0.160906
-0.177099 -0.009870 0.338562
-0.139089 0.086320 0.112584
-0.129998 -0.052951 0.056276
-0.165549 0.050809 0.096259
0.191221 -0.164782 -0.304614
-0.108620 0.016933 -0.009827
-0.107817 -0.168454 -0.027914
-0.157110 -0.039593 0.078972
0.211326 0.014835 -0.010564
0.085540 -0.026147 -0.016327
-0.176483 -0.164056 0.332401
-0.185135 0.046094 0.375093
0.026153 -0.183820 -0.000104
-0.151224 -0.000873 0.196581
-0.114993 0.057781 0.020065
-0.116900 -0.036186 -0.005369
-0.152685 -0.025395 0.186303
-0.190215 -0.024879 0.244406
-0.140070 -0.126866 0.174282
0.161403 0.111023 -0.021505
-0.153647 0.096030 0.228900
0.067355 -0.113587 -0.020930
0.050039 0.184166 -0.006489
-0.109749 -0.162960 -0.110305
-0.166904 -0.160952 0.203456
-0.100874 -0.097332 0.006844
-0.009345 -0.146647 0.007077
0.129613 0.069522 -0.019425
0.010043 0.095002 0.005992
-0.155372 0.025154 0.063125
-0.154637 0.055034 0.190505
-0.170397 0.101678 0.180108
-0.123917 -0.156933 0.040884
0.180410 -0.177292 -0.270680
-0.135743 0.073726 0.072417
-0.061616 -0.043979 -0.013213
0.105652 -0.083333 0.004575
-0.176262 0.146700 0.218824
-0.200305 0.068045 0.317174
-0.099655 -0.161273 -0.170828
-0.170028 -0.026918 0.295137
0.118069 -0.004944 -0.017155
-0.157755 0.105462 0.244175
-0.107325 -0.011360 -0.007514
-0.161411 -0.171643 0.182591
-0.146083 0.189638 0.118245
-0.056685 0.068084 -0.019278
-0.101278 -0.032797 0.005150
0.192372 -0.172494 -0.168856
0.198872 -0.175453 -0.229737
0.075854 -0.120305 0.005020
-0.160476 0.154515 0.092899
-0.054517 -0.196221 0.011619
-0.185488 0.166497 0.317088
0.191269 0.183808 -0.233687
-0.053595 0.001144 0.000996
-0.142385 -0.032579 0.116628
-0.059781 -0.156682 -0.000768
-0.178777 -0.172234 0.280253
0.001910 0.140132 -0.012699
-0.161896 0.191291 0.302873
0.162670 -0.185018 -0.001778
0.042947 -0.152153 0.006373
-0.015543 -0.091521 -0.010746
0.195729 -0.181241 -0.067776
0.112397 0.121324 -0.017575
0.128354 -0.070577 0.000999
0.093038 0.014866 0.004111
-0.021117 -0.187134 -0.002403
-0.134927 0.129958 0.106826
-0.100423 -0.160291 -0.109095
-0.181661 0.089344 0.217681
0.013001 -0.090756 0.008516
-0.070149 0.031461 -0.017192
-0.173680 -0.061563 0.126622
-0.189413 -0.105236 0.248493
-0.181271 0.128402 0.365768
-0.090647 0.184891 0.018863
-0.044456 0.050548 -0.017652
-0.119349 0.171248 -0.215747
-0.114444 0.160147 -0.037114
-0.126173 0.163717 -0.248660
-0.162605 0.182553 0.171071
-0.137683 -0.104059 0.117559
-0.208872 -0.060649 0.365978
-0.002473 -0.049329 -0.010099
0.011028 0.128341 0.005308
0.177499 0.169351 -0.090659
0.156158 0.164094 0.003997
-0.140464 -0.024914 0.032465
-0.156016 -0.125808 0.280123
0.082916 0.154674 0.004481
-0.122819 0.189579 0.083157
0.203658 0.039090 -0.022452
-0.138070 0.023243 0.080547
-0.183247 0.160618 0.334480
-0.101206 0.153260 -0.059553
-0.134291 -0.096733 0.099141
-0.165225 0.159552 0.308915
0.137451 -0.197275 0.014351
-0.161067 0.035640 0.085458
-0.182396 0.108745 0.246128
-0.164727 0.175427 0.299235
-0.145412 0.175929 -0.385066
0.147052 -0.094138 -0.026279
-0.163155 0.089682 0.279526
-0.140726 0.102204 0.085204
-0.119821 0.195758 0.101329
-0.175708 0.186259 0.281897
0.068398 -0.184823 0.002836
0.113780 -0.122651 0.009698
0.186562 0.098718 -0.019232
0.189382 0.174467 -0.082500
-0.034408 -0.192888 0.000036
-0.131461 -0.091865 0.064499
-0.209503 -0.003832 0.374030
0.194708 -0.166764 -0.035992
0.188761 -0.182855 -0.377139
-0.170842 -0.144192 0.201862
-0.146706 -0.098290 0.201054
-0.147107 -0.176087 -0.348733
-0.138301 -0.191736 0.267757
-0.186129 -0.125520 0.250272
-0.152564 0.203387 0.241529
-0.163236 0.137215 0.280653
-0.193703 -0.060217 0.278509
0.099078 -0.077562 -0.022666
0.202260 0.047275 -0.002949
-0.149664 0.007754 0.187489
-0.119541 -0.160478 -0.135518
-0.197604 -0.000813 0.285860
-0.111895 -0.085184 0.015600
-0.136177 0.173953 -0.308174
-0.072430 0.056456 -0.019737
0.131212 -0.122335 -0.017604
-0.121671 0.149784 0.006247
0.096105 -0.191820 -0.002295
-0.016798 0.061236 -0.018135
-0.088389 0.194244 0.009108
-0.138684 -0.166335 -0.258502
0.184644 0.180994 -0.032107
0.191356 -0.087012 -0.001729
-0.137900 -0.178778 0.074961
-0.166584 0.173401 0.138616
-0.115319 0.188397 0.060793
-0.180584 0.177067 0.277940
0.122300 -0.030773 -0.001044
-0.172802 -0.043567 0.118179
-0.178131 -0.034006 0.179062
-0.092599 0.049521 0.005985
0.124047 0.145249 -0.015286
-0.000237 0.115915 0.007002
-0.157882 -0.022094 0.073687
0.078647 0.159957 -0.010230
-0.138680 -0.085335 0.030514
0.196967 -0.048772 -0.004198
0.014484 0.020331 0.007457
0.005609 -0.056948 -0.012286
-0.163129 -0.079224 0.290915
-0.160667 0.119763 0.115070
0.117709 0.200884 -0.000455
-0.093953 -0.162758 -0.081788
-0.178523 -0.098119 0.211196
-0.047292 -0.028347 0.003681
-0.144708 0.100604 0.154568
-0.167832 -0.099260 0.161262
-0.129880 -0.094958 0.019829
-0.139969 -0.111104 0.049415
-0.085857 -0.077545 -0.013393
-0.192946 0.136543 0.310133
0.001251 -0.088504 -0.008436
-0.172561 0.114426 0.351231
-0.148015 0.087061 0.186959
-0.163663 0.185993 0.195184
0.114177 -0.197559 0.006912
0.134839 -0.108021 0.005204
0.187635 0.185233 -0.359486
-0.188490 0.086638 0.261366
0.077591 -0.110055 0.005973
-0.136130 0.207528 0.212414
-0.176523 -0.161030 0.277005
-0.118880 -0.175241 0.094098
-0.145283 -0.003731 0.147644
0.136381 -0.198988 0.007176
0.115977 0.043467 0.004095
0.096863 -0.110105 -0.021069
-0.176476 -0.029882 0.334003
-0.048061 -0.090799 0.005092
0.191033 0.178072 -0.292067
-0.109303 0.041705 0.004173
-0.191474 -0.088232 0.259481
-0.207986 -0.090817 0.366121
-0.046295 0.097053 0.005641
-0.175855 0.046302 0.189579
0.034484 0.196807 0.005585
0.025709 -0.149609 0.007791
-0.133908 -0.174713 -0.318992
-0.182559 0.003997 0.201069
-0.114790 -0.110983 0.020083
-0.198342 0.112851 0.351548
-0.090667 -0.169243 -0.034413
0.033935 0.193026 -0.002234
-0.002800 -0.060811 -0.019158
-0.164291 -0.149668 0.135784
-0.094249 0.160792 -0.089758
-0.154633 0.050066 0.206939
-0.153274 -0.197438 0.215281
-0.146926 0.153388 0.235843
-0.152029 0.176721 -0.329040
-0.128057 -0.163242 -0.171953
-0.200625 -0.063335 0.311366
-0.134401 0.200666 0.132474
0.196418 0.181343 -0.145887
-0.135237 0.188303 0.136344
0.195700 0.177921 -0.247226
0.187163 -0.162279 -0.042004
-0.010586 0.070464 0.004528
0.051905 0.113274 0.007077
-0.143927 0.142359 0.217035
-0.163919 -0.178514 0.214019
-0.172389 0.011888 0.286324
-0.165686 -0.140942 0.145306
0.033463 0.204405 -0.003201
0.064466 -0.142846 0.003355
-0.140035 0.065700 0.096269
-0.187091 -0.000682 0.223417
0.065896 0.002236 -0.013625
-0.144497 0.009406 0.139445
0.016146 0.093840 -0.024020
-0.199904 0.082533 0.320453
-0.173263 0.189146 0.277889
0.016648 -0.060914 0.006342
-0.168822 0.184054 0.234338
0.192968 0.187639 -0.044023
0.128659 -0.143594 0.005975
-0.181799 0.141121 0.355192
-0.075315 0.158623 -0.014057
-0.143491 -0.185665 0.131840
-0.056356 0.011712 -0.015276
0.090866 0.002742 -0.014537
-0.188890 0.053936 0.261136
0.083395 0.086446 0.004141
-0.146315 -0.158722 0.270773
-0.203212 -0.004064 0.345597
-0.130351 0.154067 0.053707
-0.138004 -0.193799 0.185570
0.180882 0.197480 0.007120
-0.143277 0.005062 0.101768
-0.145178 0.087120 0.158463
-0.160214 -0.010862 0.233335
-0.153431 0.170457 0.284630
-0.182457 0.020711 0.356286
-0.004530 -0.187878 -0.001630
-0.160433 0.016916 0.237802
0.053985 0.013263 0.002464
0.072041 -0.156454 -0.008561
-0.191575 0.145647 0.349531
0.136735 0.085215 0.003535
-0.181065 -0.016158 0.190507
0.013008 -0.194942 0.003314
0.177264 -0.015577 -0.022776
-0.154767 -0.178739 0.152500
-0.143634 0.162104 0.214001
-0.113232 -0.128635 0.038767
-0.164321 0.197588 0.226819
0.036351 -0.154247 -0.011940
-0.108843 -0.068095 -0.005628
-0.117465 0.184199 0.071783
-0.072032 0.179451 -0.005537
-0.113725 0.148034 -0.001766
-0.153654 -0.019171 0.179639
-0.180590 0.015286 0.354144
0.160083 -0.161363 0.006599
0.027918 -0.195012 0.004715
-0.173497 0.010986 0.126164
-0.154561 0.110414 0.073040
-0.212398 0.023970 0.383354
0.195344 -0.163094 -0.084292
-0.196315 -0.089944 0.281496
-0.164779 -0.087063 0.111214
-0.160019 -0.063290 0.098262
-0.141695 -0.182659 0.256563
-0.170564 -0.072662 0.150483
0.108053 0.190243 -0.008115
0.189942 0.178381 -0.352586
0.184905 0.169280 0.006156
0.153936 -0.078293 0.005506
0.184615 0.124982 -0.023539
-0.119912 -0.078244 0.047968
0.111651 0.139072 0.006640
-0.194301 -0.107668 0.290556
-0.159101 -0.127423 0.113774
0.192965 0.121207 0.003207
-0.144562 -0.133448 0.209736
-0.151003 0.203782 0.223881
0.049233 -0.186287 0.000933
0.000507 0.172255 -0.007331
0.058932 -0.031835 -0.014287
0.197830 0.096734 -0.019088
-0.177135 -0.027130 0.320920
-0.010544 0.122270 -0.014730
-0.121460 -0.159308 -0.019197
0.196487 -0.178659 -0.352506
0.146378 -0.171280 -0.012496
-0.130581 0.185554 0.109713
-0.140924 0.042099 0.089387
-0.150929 -0.058286 0.222774
-0.115480 -0.191823 0.087572
0.074768 0.198102 -0.002342
0.014946 0.111231 -0.014553
-0.194769 -0.014758 0.379133
0.134784 0.004600 -0.016105
0.146937 -0.185268 0.002662
-0.175396 -0.021591 0.159496
-0.127946 -0.191839 0.151388
-0.022898 -0.122539 0.006816
-0.146097 0.195347 0.238595
0.003093 0.198587 0.004053
-0.137444 -0.178594 -0.325771
-0.113396 -0.184679 0.054785
-0.162839 -0.104856 0.314039
-0.149045 0.206766 0.228625
-0.167878 -0.014132 0.108720
-0.083826 -0.124853 0.002580
-0.091354 0.089925 -0.012214
0.068044 0.167192 0.003712
0.090084 -0.169005 -0.011473
-0.154975 -0.110634 0.271531
-0.151395 -0.103158 0.235840
-0.099232 -0.157986 -0.130761
0.066190 -0.020467 0.002001
-0.179619 -0.098435 0.225997
-0.184396 0.101238 0.256012
-0.151911 -0.040339 0.229523
0.019568 -0.052928 -0.011930
-0.139762 0.169008 -0.228396
-0.038776 -0.036125 -0.018502
-0.186849 0.070149 0.372333
-0.146307 0.174068 -0.317952
-0.196342 0.119470 0.326851
0.204417 -0.084088 -0.020895
-0.129584 0.087232 0.022206
0.054926 -0.051725 0.004409
-0.177388 0.052046 0.168571
-0.147944 -0.195055 0.242567
-0.084494 0.080168 0.004988
-0.120444 -0.093083 0.010922
0.008436 0.157125 -0.009773
0.200333 -0.163020 -0.000923
-0.081973 0.158130 0.005115
0.193399 0.176804 -0.085423
-0.136724 -0.197686 0.188263
0.186384 0.171146 -0.213796
0.190507 -0.167404 -0.211208
-0.176831 0.037719 0.164715
0.073398 0.130882 0.009644
-0.128489 -0.185638 0.047074
-0.067183 0.057380 -0.024584
-0.166783 -0.008659 0.101786
-0.012589 -0.099166 0.004585
0.026326 0.134339 0.007113
-0.161241 0.021978 0.096261
0.079584 -0.007753 -0.001008
-0.194258 0.118629 0.312528
0.139324 -0.050054 0.003081
-0.148582 -0.108664 0.063185
0.083642 -0.051837 -0.016077
0.029390 0.177706 -0.006778
-0.188104 -0.160589 0.325035
0.147801 -0.024776 0.001376
-0.169586 0.091230 0.310397
0.193291 -0.165487 -0.171693
-0.198378 -0.116929 0.353947
-0.158851 -0.124278 0.136233
-0.096584 0.029597 -0.014807
-0.125039 -0.154787 0.112707
-0.168131 -0.148219 0.183916
-0.150836 0.112999 0.213246
-0.177871 0.049712 0.356842
-0.154277 0.185810 0.138209
-0.152584 -0.026278 0.236861
0.098048 -0.151037 -0.006737
0.172036 -0.064558 -0.017437
-0.095810 -0.185941 0.029324
-0.148226 0.140160 0.073243
-0.145468 0.138941 0.227554
-0.167006 0.078008 0.292388
-0.159731 0.117883 0.269400
-0.134895 -0.179542 -0.301568
-0.003506 -0.187764 0.007396
0.211011 -0.014280 -0.011810
0.202336 0.112929 -0.016353
-0.176931 0.105635 0.201924
-0.106633 -0.168362 0.024159
-0.151765 -0.064551 0.184210
-0.102349 0.057315 -0.014561
-0.103115 -0.135787 0.030511
-0.100190 0.079235 0.017670
-0.192884 -0.029389 0.268119
-0.168936 -0.025607 0.116576
-0.092790 -0.133151 0.010846
-0.131967 -0.173738 0.174205
0.079973 0.038464 -0.013590
-0.157890 -0.161500 0.112961
0.183575 0.170020 -0.176177
-0.194876 -0.079482 0.274824
-0.193479 -0.110678 0.305089
-0.182264 0.127042 0.254552
0.039270 -0.117032 0.008722
-0.164342 0.094538 0.288085
0.185109 0.166989 -0.130669
-0.145241 -0.023026 0.154252
-0.142817 -0.057201 0.157682
0.093784 0.128158 0.009751
0.124291 -0.037981 0.001587
-0.038551 0.040959 -0.016851
0.201679 -0.178570 -0.146453
-0.050460 0.028850 -0.015988
0.014408 -0.016148 -0.014859
0.152545 0.176099 -0.003856
-0.169051 0.091851 0.158743
0.056216 -0.071602 0.004591
-0.157993 -0.173443 0.134924
-0.159441 0.059889 0.090066
0.057885 -0.105257 0.007190
0.124358 0.171042 -0.010064
0.181176 -0.062012 -0.017017
-0.096300 -0.147117 -0.012439
-0.149491 0.178039 0.261888
-0.030940 0.129859 -0.013610
-0.035352 0.201752 0.010295
-0.096098 -0.162237 0.003464
-0.180842 0.135507 0.239918
-0.093701 -0.011379 -0.016780
0.195934 0.182168 -0.213313
-0.141296 0.190780 0.128937
0.179946 -0.129216 0.006875
-0.009841 -0.052319 0.006822
0.168289 -0.132520 -0.018528
-0.013508 -0.124172 0.008399
-0.095692 -0.164958 0.026059
-0.130540 -0.120067 0.081194
-0.133880 0.171749 -0.204935
-0.128317 0.144764 0.111594
-0.163953 -0.170072 0.330285
-0.175237 -0.181976 0.285309
0.045975 -0.086086 -0.011489
0.069499 -0.040419 0.002792
-0.157306 0.194638 0.204504
-0.034785 0.062219 0.002025
-0.188485 -0.120734 0.367472
0.196399 -0.164701 -0.065862
-0.124995 0.169702 -0.259584
-0.120593 0.162378 -0.093835
-0.052961 -0.102775 -0.019049
-0.199215 -0.001779 0.383844
-0.138214 0.122555 0.133813
-0.177784 0.059442 0.345154
0.043744 -0.125220 0.008409
-0.185228 -0.017412 0.229021
-0.035162 0.073532 -0.017906
-0.138460 0.171110 -0.352418
-0.106581 -0.164210 -0.166086
-0.129977 0.159591 0.115228
-0.193410 0.124903 0.342560
-0.081331 0.201410 0.027451
0.158690 0.171852 -0.014776
-0.005936 0.196948 0.001904
-0.152995 -0.106597 0.099731
-0.141039 0.178517 0.204143
0.208812 -0.075310 -0.011298
-0.088555 0.158579 0.001866
-0.128040 -0.112567 0.016552
-0.165940 0.158043 0.137185
-0.014386 -0.023636 0.003746
-0.176941 0.014901 0.344158
-0.003367 -0.192947 0.001274
-0.182214 -0.080626 0.207488
0.194359 0.175380 -0.183183
0.163030 -0.122442 0.005592
0.182704 0.146171 -0.017528
-0.002360 0.075027 -0.013666
-0.179745 -0.129408 0.230000
-0.163306 0.189985 0.281415
0.133071 -0.182449 -0.007275
-0.102999 0.188206 0.022482
0.187776 -0.171770 -0.331801
-0.139112 0.158803 0.170573
0.197203 -0.190523 -0.378375
-0.053042 -0.025591 -0.017491
-0.070357 0.000612 -0.016204
-0.130557 -0.170710 -0.308414
0.116905 -0.170191 0.002716
0.009559 -0.075379 0.007720
0.059175 -0.009334 0.004047
-0.172782 0.141493 0.189074
0.194089 0.170665 -0.071169
-0.172683 -0.170437 0.257302
0.108657 -0.007616 -0.002042
-0.003617 -0.008773 -0.014813
-0.199661 -0.113384 0.373286
-0.070621 0.183300 0.007247
-0.047382 0.203652 0.013367
-0.192177 -0.145247 0.359368
-0.115500 -0.138109 0.021244
-0.141892 -0.169942 -0.332233
-0.142374 -0.167337 0.217157
0.103441 0.178582 0.001631
-0.107108 0.106484 -0.006535
-0.159256 0.181486 -0.377642
-0.172880 -0.116522 0.206257
-0.142186 0.149886 0.201330
-0.124708 -0.174287 0.140023
-0.108662 -0.093518 -0.008699
-0.130424 -0.143103 0.095779
0.016103 0.109147 0.009310
-0.169352 -0.133440 0.174799
0.181592 -0.179185 -0.138655
0.058589 -0.187484 0.008171
-0.144948 -0.079929 0.048111
0.195525 -0.175246 -0.127173
-0.095252 0.090633 -0.014531
-0.133936 0.017391 0.050751
0.163292 -0.190877 0.006249
-0.123015 -0.110749 0.033787
0.037355 0.029472 0.004284
-0.012824 0.200884 0.003377
-0.150526 -0.177924 -0.345510
-0.192135 -0.046918 0.276050
-0.123125 -0.163024 -0.202218
-0.205876 0.089875 0.372526
-0.054648 0.119774 -0.016030
-0.139229 0.173590 -0.249593
0.177170 -0.151649 -0.013967
-0.079242 -0.129345 0.004853
0.148540 0.175087 -0.015784
-0.167187 0.139237 0.153851
-0.178629 0.060472 0.192492
-0.016373 0.085805 -0.015520
0.186501 0.182784 -0.227898
0.078429 0.215989 0.004353
-0.052140 0.095684 -0.018334
-0.095355 -0.146102 -0.040914
0.199032 0.174579 0.011272
0.066347 0.075374 -0.018334
-0.157084 0.083161 0.237330
-0.144155 0.178909 -0.317649
-0.192976 -0.149330 0.325787
-0.003645 0.008930 0.002479
-0.177782 -0.065739 0.189618
-0.162549 -0.191945 0.241086
0.100302 0.164126 0.001768
-0.164358 -0.109226 0.121931
0.094408 -0.084287 0.004817
-0.184117 -0.144602 0.355741
-0.133174 -0.107837 0.094636
-0.175360 -0.130232 0.221648
0.125852 -0.169710 -0.010105
0.193795 -0.179554 -0.277482
0.116106 0.127370 -0.021322
0.088570 -0.201737 0.010819
-0.173730 -0.104731 0.174509
0.202987 0.029279 -0.018040
-0.136526 0.105714 0.103543
0.112413 0.088388 0.006295
-0.165037 0.122682 0.307850
-0.110372 -0.160738 -0.183302
-0.163075 0.186670 0.211082
-0.197919 -0.107856 0.328573
-0.136954 -0.072966 0.109680
0.206145 -0.097727 -0.011628
-0.072518 -0.192858 0.006163
-0.153431 -0.166068 0.303382
0.182277 -0.041837 -0.020646
-0.103054 -0.051894 0.007548
-0.139367 0.100461 0.124182
-0.178157 -0.026567 0.340662
-0.164997 -0.018607 0.269619
-0.198142 -0.018091 0.302705
-0.153539 0.159655 0.263748
-0.170268 0.163613 0.203969
-0.087021 -0.110109 0.004456
-0.131585 0.108359 0.051647
0.186636 -0.028809 -0.022841
-0.021606 -0.161573 0.006174
-0.208013 -0.062034 0.377093
-0.131661 -0.190672 0.152633
0.185220 -0.176959 -0.196968
0.205597 0.043102 -0.011006
-0.010749 0.145300 0.003318
-0.169004 0.074463 0.123154
-0.139885 -0.188017 0.139541
-0.102843 -0.104119 -0.005846
0.178598 0.165113 -0.030392
-0.134326 0.202360 0.153454
-0.170042 0.177297 0.316027
-0.034940 0.102037 -0.013642
0.188837 -0.178529 -0.052357
-0.116029 0.143006 -0.007931
-0.118392 0.056327 0.004324
0.037702 0.195199 0.004590
-0.041626 0.155509 -0.021990
-0.193094 0.112571 0.299122
-0.130281 -0.169208 -0.295133
-0.163608 -0.083275 0.301732
0.197252 -0.165503 -0.232850
-0.151584 0.070028 0.215644
0.052028 0.137174 0.008346
0.171307 0.113782 0.003769
0.060172 0.036640 0.004531
-0.137779 -0.178232 0.239827
-0.168219 -0.148512 0.191442
-0.135037 -0.149405 0.049908
0.021771 -0.192552 0.005688
0.099824 0.113201 0.006124
0.090214 -0.109372 -0.016985
-0.099221 -0.158532 -0.057174
-0.044673 -0.134565 -0.006378
0.193200 -0.183964 -0.003414
0.126168 0.069959 0.004283
0.079144 0.006228 0.003921
-0.176976 0.088670 0.198635
0.049775 0.200837 -0.002050
0.147076 0.066866 0.000588
-0.172576 0.123407 0.183835
0.008144 0.104532 -0.012013
-0.168268 0.103552 0.299851
-0.142728 0.135841 0.195263
-0.182337 -0.028141 0.208438
-0.003047 0.059679 0.005977
0.021251 -0.173525 0.009112
-0.069412 0.140089 -0.016066
-0.164131 0.103867 0.139440
-0.195580 0.039759 0.284600
-0.141793 -0.150199 0.195064
-0.141951 0.066222 0.040756
0.105695 -0.065588 0.002443
-0.144743 0.019107 0.117347
-0.025417 -0.185859 0.007082
-0.125884 0.136912 0.105964
-0.203758 -0.017572 0.331106
-0.096199 -0.120224 0.010585
-0.142250 0.175194 -0.335266
-0.020946 -0.058259 -0.010778
-0.164565 0.094165 0.111983
-0.152636 0.057670 0.053208
0.040138 0.002311 0.004014
-0.133356 -0.163772 -0.238294
0.186583 0.169202 -0.102873
0.089078 -0.128285 -0.013798
-0.149265 -0.042073 0.203202
0.128769 0.210614 0.009247
-0.107919 -0.167759 -0.063821
-0.131823 0.171429 -0.243796
0.199188 -0.137177 -0.003908
-0.145389 -0.092819 0.059617
-0.172023 -0.024500 0.134316
0.010337 0.048580 0.007656
0.024469 0.020517 -0.012389
0.188420 0.185370 -0.280084
-0.190460 -0.129614 0.295329
-0.167320 -0.005766 0.263533
-0.131687 0.192037 0.147774
-0.191798 -0.068239 0.373068
-0.083181 0.106898 0.009302
-0.173365 0.144314 0.343686
-0.132234 0.195514 0.126875
0.180462 -0.110682 0.003565
-0.143591 0.018792 0.096698
-0.148335 -0.189467 0.259290
-0.203823 -0.035929 0.327086
-0.175249 -0.037187 0.155935
-0.122870 -0.183889 0.072372
0.193981 -0.186429 -0.033242
0.194568 -0.176512 -0.219420
-0.144814 -0.188565 0.152742
-0.043969 0.073368 -0.026376
-0.122224 0.116504 0.044789
0.123464 -0.097208 -0.023018
-0.056180 -0.017598 0.004353
-0.172370 -0.021798 0.308238
-0.174274 -0.156018 0.234027
-0.110631 0.153113 -0.083752
0.099346 -0.143370 -0.009435
0.025289 -0.111699 0.008717
0.057274 0.167522 -0.008509
-0.202637 0.067041 0.377044
-0.008608 -0.024438 -0.013630
0.095769 0.019413 0.001339
0.017279 0.160762 0.005733
-0.153229 0.007139 0.064360
-0.209546 -0.018346 0.387926
-0.110761 -0.068713 0.001675
-0.140511 -0.150749 0.081521
-0.156445 -0.021332 0.245279
-0.182725 0.112722 0.373514
-0.094369 -0.054430 -0.011650
0.137988 -0.148461 -0.015026
-0.194962 -0.069540 0.291173
-0.144825 0.033554 0.106894
-0.134803 -0.130154 0.139248
0.192597 0.174934 -0.090724
0.187754 0.141746 -0.017082
-0.198424 0.010547 0.317255
-0.186081 -0.147926 0.298762
-0.180634 -0.158092 0.287864
0.009618 0.186675 -0.006293
0.188778 -0.002739 -0.021526
0.094964 0.079172 0.005375
0.112440 0.139402 -0.015875
0.009247 -0.160653 0.007915
0.037959 0.053312 -0.017712
-0.126583 0.178773 -0.264268
0.195579 -0.175805 -0.304141
0.094114 -0.194067 0.006195
0.168744 0.008858 -0.021353
0.103569 -0.059670 -0.016579
-0.173581 0.048666 0.144103
-0.111564 0.158825 -0.149837
-0.042241 0.077538 0.005300
0.174947 0.199606 -0.001145
-0.184727 0.038604 0.235911
-0.171397 -0.152761 0.338394
0.188081 -0.143950 0.005010
-0.199956 -0.079927 0.332601
0.072679 -0.144640 0.002622
0.170751 0.084155 -0.020827
0.132615 0.106439 0.005387
0.196523 -0.177133 -0.163939
-0.138534 -0.109547 0.144601
0.103308 0.077581 -0.018279
0.203144 0.101348 -0.009520
-0.079926 0.083094 -0.020301
0.081705 0.192189 -0.010271
-0.176830 -0.045847 0.328441
0.158146 -0.127629 -0.017939
0.190151 0.165575 -0.155777
-0.027452 0.126364 0.006725
-0.200930 -0.044526 0.334440
-0.111763 -0.163911 -0.179685
0.020063 0.204999 -0.001399
0.175959 0.187168 -0.321319
-0.146233 -0.105930 0.213585
-0.208741 0.066985 0.373197
-0.020606 0.187635 0.007086
-0.129533 -0.110947 0.010652
-0.191995 0.126396 0.297687
-0.059990 0.181532 -0.008917
-0.165650 0.148363 0.150060
0.164507 -0.011121 -0.019137
0.129799 -0.045518 -0.017532
-0.157017 0.189731 0.293554
-0.113031 -0.164165 -0.085111
-0.104602 -0.031577 -0.009800
-0.161334 -0.183595 0.223022
0.188106 -0.078496 -0.021118
-0.191038 0.097615 0.273252
0.159693 0.066058 -0.022762
0.180970 0.167323 -0.023807
-0.111767 0.167233 -0.171710
-0.119819 -0.158181 -0.177945
-0.008393 -0.148171 -0.008745
-0.140528 0.175058 -0.333131
0.139105 0.052437 0.002243
0.186787 -0.171691 -0.059073
0.191281 0.022966 0.000776
-0.139153 -0.074780 0.146750
0.174391 -0.163400 -0.016202
-0.031656 -0.041132 -0.011247
-0.162961 0.075341 0.110526
-0.181251 0.028998 0.170229
-0.111182 0.173261 -0.139113
-0.183026 -0.168167 0.300398
0.107879 -0.199336 0.011088
-0.171300 0.057458 0.131202
0.102000 -0.200316 0.009912
-0.086717 0.160919 -0.069510
-0.070189 0.199163 0.021565
-0.163657 0.005086 0.096060
-0.033239 0.085069 0.004678
0.148604 0.195537 -0.003197
-0.121064 -0.167922 0.031602
-0.015331 0.156136 -0.008216
-0.141233 0.118020 0.058977
0.049628 0.153679 -0.012084
0.198013 0.140594 -0.003170
0.196500 -0.173947 -0.260532
-0.035764 -0.145286 -0.005585
0.045327 0.144366 -0.014768
0.098695 -0.016747 -0.013676
-0.141531 0.095471 0.054354
-0.008285 -0.011219 0.003669
-0.126771 -0.084749 0.012240
-0.174274 -0.003669 0.133017
-0.154498 -0.077353 0.220027
-0.124509 -0.163490 -0.263300
0.189550 -0.169150 -0.128940
0.005397 0.093237 -0.014805
0.013309 -0.135658 0.006412
-0.209111 0.052352 0.384667
-0.146912 0.163624 0.079055
-0.128184 -0.163905 0.147935
-0.176816 -0.054781 0.196598
-0.163554 -0.184103 0.287258
-0.204825 0.035723 0.380901
-0.153665 0.193921 0.201297
-0.194103 -0.150306 0.339738
-0.144558 -0.097358 0.194627
0.205204 -0.099979 0.000373
-0.186551 -0.167796 0.321829
-0.130166 0.180595 -0.233364
0.193282 -0.166682 -0.043497
0.201303 -0.171790 -0.174258
-0.112192 0.164342 -0.021458
-0.171510 0.193194 0.297558
0.092201 0.096937 0.005922
-0.064919 -0.065511 -0.012401
-0.147887 -0.180494 -0.349424
-0.193695 -0.037836 0.379221
-0.152700 0.019055 0.203994
-0.199420 0.058506 0.311943
0.031660 0.101618 -0.013314
-0.198582 -0.095765 0.319128
-0.199256 -0.073954 0.319905
0.083707 -0.031265 0.002928
0.174421 -0.173354 -0.013248
-0.195923 0.129661 0.362738
-0.170033 0.054657 0.121588
-0.188943 -0.039996 0.238445
-0.148846 0.069717 0.170086
0.188142 0.060347 -0.000923
-0.178147 0.114688 0.212916
-0.107141 0.112937 0.000645
-0.132481 0.177587 0.049260
0.207336 -0.082371 -0.004970
-0.146694 -0.170035 -0.318374
0.125592 0.093465 0.005724
-0.164918 -0.131192 0.322761
-0.071456 0.055330 0.002580
0.008143 -0.187117 0.007149
-0.054217 -0.154325 0.012444
0.061024 -0.093373 0.006251
-0.186583 0.073775 0.249567
-0.000038 -0.195419 0.007955
-0.158836 -0.123868 0.135867
-0.203359 -0.034041 0.364287
-0.190936 0.146500 0.314015
0.155008 -0.110031 -0.018313
-0.125511 0.190132 0.071262
-0.156961 0.129180 0.099529
-0.100056 -0.155929 -0.032985
0.023420 -0.123269 -0.015433
-0.146271 -0.085024 0.174778
0.013822 0.065226 0.006181
-0.200114 -0.007164 0.329557
0.005511 -0.005869 0.006814
-0.048905 -0.002819 -0.014500
-0.176361 0.010948 0.165493
0.177118 0.178661 -0.366483
-0.156560 -0.141338 0.277827
-0.124400 0.178772 -0.242940
0.194374 -0.171650 -0.099583
-0.190968 0.054406 0.272401
0.200647 0.142505 -0.012459
-0.123515 -0.165788 -0.229171
0.045374 -0.159417 -0.008275
0.191057 -0.174608 -0.187220
-0.181910 -0.000043 0.327858
0.118666 -0.104949 -0.018593
-0.083607 -0.162810 -0.006343
-0.181790 -0.031743 0.377443
-0.142285 -0.121981 0.055495
-0.188139 -0.102442 0.268589
-0.151316 0.131784 0.089869
-0.047498 0.037908 0.002546
-0.190427 0.034516 0.250588
-0.009446 0.033083 -0.013613
-0.134179 -0.153084 0.170930
-0.171959 0.130936 0.335862
0.178662 -0.188129 -0.014245
-0.107827 0.134728 0.025198
0.169550 -0.047508 -0.016395
-0.123424 -0.114260 0.022866
-0.135409 -0.080484 0.103082
-0.111334 -0.116130 -0.001342
-0.053374 -0.073885 0.005574
0.130209 -0.138709 0.005173
0.009350 0.192055 0.003512
0.053238 -0.165139 0.004876
0.112577 -0.114540 -0.023050
-0.134674 0.132037 0.117654
-0.130379 0.121632 0.153324
-0.000281 0.156205 0.006398
0.193603 0.179090 -0.082076
-0.179105 0.160049 0.272376
-0.171197 0.028417 0.114114
-0.088682 -0.159146 -0.100770
0.111277 0.110696 0.006788
-0.162721 0.142106 0.160761
-0.179123 0.058886 0.205287
-0.158978 0.099967 0.099699
-0.173872 0.040071 0.335978
-0.179802 0.076743 0.364027
-0.162877 -0.112852 0.138254
-0.171815 -0.077958 0.316381
-0.100276 -0.000652 -0.013215
-0.140574 0.135056 0.171526
0.199852 0.069482 -0.018556
-0.180195 0.042441 0.186624
-0.133804 -0.180524 0.192457
0.088157 -0.099266 0.004225
-0.175332 -0.065555 0.338760
-0.121602 0.177113 0.104124
-0.031787 -0.201042 0.008307
0.181542 -0.172288 -0.366340
-0.142366 -0.124447 0.155359
-0.142614 -0.174288 0.103234
-0.159062 -0.056899 0.262937
-0.130083 0.031625 0.062457
-0.200969 -0.049727 0.318957
-0.210638 0.008225 0.371163
-0.166041 -0.090391 0.145678
-0.144733 -0.005366 0.114215
-0.143960 0.115478 0.178849
-0.173948 0.083090 0.177084
-0.176681 -0.058543 0.335971
-0.159813 -0.126281 0.291775
0.044793 0.035547 -0.014783
-0.121902 0.173005 0.023526
-0.118876 -0.133163 0.015945
-0.179731 0.104025 0.225685
-0.133964 -0.175691 0.147594
0.181470 0.170322 -0.050781
-0.025999 0.162254 0.009042
-0.171561 -0.188546 0.263243
-0.146119 -0.176807 0.104365
0.109515 0.178663 -0.006330
0.198636 0.175535 -0.067064
0.185487 0.164436 -0.055560
-0.145460 0.179326 0.103606
-0.132599 0.175253 -0.281759
-0.054291 0.201074 0.016250
0.191189 0.051479 -0.021806
-0.104890 -0.069003 0.011250
-0.142450 0.044685 0.118215
-0.145044 -0.119914 0.203879
0.208551 0.098581 -0.018289
-0.142946 -0.175151 -0.331436
0.158739 0.152494 0.005503
-0.083376 -0.147605 0.000060
-0.193471 0.137288 0.327606
-0.182035 -0.011246 0.208487
-0.176306 0.123179 0.369607
-0.017955 0.148204 0.008383
0.194748 -0.172480 -0.179329
0.048826 0.124443 0.008513
-0.154386 0.138634 0.260558
-0.082239 0.036637 0.003340
-0.156582 0.146218 0.135016
-0.140150 0.037141 0.099292
-0.152731 -0.166129 0.299542
-0.051007 0.203184 0.012882
-0.176794 0.046497 0.332322
-0.135796 0.002991 0.077787
-0.152918 -0.006932 0.066899
-0.010918 0.206906 0.005596
-0.111412 0.010881 -0.007533
-0.188461 -0.047405 0.372406
0.092422 0.058548 -0.019004
0.157232 0.130215 -0.022614
-0.144039 -0.018176 0.103515
-0.122553 -0.197647 0.138641
0.189799 -0.178577 -0.259074
0.097657 0.117567 -0.021465
-0.060963 0.124606 0.004112
-0.169966 -0.104923 0.178470
-0.159173 -0.169039 0.178362
-0.078782 -0.057366 0.007496
-0.185008 -0.069222 0.219487
-0.164556 0.045025 0.256631
-0.131007 -0.147244 0.145952
0.118745 0.126354 -0.017376
0.036142 0.151945 -0.015534
0.053501 -0.203929 0.004816
-0.127545 0.099798 0.029324
-0.130018 0.123302 0.064268
-0.189046 -0.153223 0.308773
0.127395 0.152883 -0.011508
-0.099162 -0.145210 -0.069991
-0.156527 -0.014084 0.222557
-0.170897 0.069230 0.311531
-0.131246 0.202902 0.094955
-0.158179 -0.174349 -0.364485
0.182911 -0.182218 -0.024793
-0.083239 -0.045547 -0.017799
0.099366 -0.128295 0.004100
0.059629 -0.079286 -0.014385
-0.131511 -0.169153 -0.231448
-0.199208 0.127473 0.355659
-0.142085 -0.163577 0.079395
-0.159099 -0.048340 0.085736
-0.185403 0.087247 0.233643
0.197081 0.005646 -0.022255
-0.163749 0.142217 0.135479
-0.052310 -0.173475 -0.005356
0.206495 0.081212 -0.017536
0.190504 -0.174006 -0.005312
-0.182360 0.180684 0.303387
-0.122457 0.164715 -0.077489
0.044280 0.160984 0.006544
-0.093831 0.027834 0.002742
0.041704 0.119806 0.006944
0.189313 -0.168659 -0.070943
-0.160883 0.025675 0.077977
-0.190824 -0.120269 0.285007
-0.205592 -0.080311 0.374136
-0.114882 0.164312 -0.024619
-0.168072 -0.126811 0.335009
-0.158213 0.044785 0.232379
-0.141187 0.188723 0.221028
-0.024261 -0.158698 -0.003548
0.059232 0.198297 0.003590
0.155953 0.126436 0.003573
-0.140362 -0.021878 0.088815
-0.172929 0.000996 0.302556
-0.192308 -0.115856 0.321235
-0.186042 0.025459 0.229364
0.101634 -0.115564 0.007087
-0.097945 0.164845 -0.067456
0.013720 0.060506 -0.013742
-0.196894 -0.027229 0.293971
0.020123 -0.126493 0.005874
0.191647 0.180705 -0.190181
-0.164923 0.201480 0.233021
-0.143830 0.074229 0.123009
-0.146446 -0.149095 0.083089
-0.132104 0.167574 -0.173159
0.133117 -0.162455 -0.011263
-0.144280 0.174074 0.228840
0.071940 0.179731 0.002683
-0.121272 0.083511 0.000069
0.191749 -0.167669 -0.205166
-0.111880 0.168764 -0.057853
-0.131794 -0.122455 0.113095
-0.180338 0.021354 0.185296
0.112531 -0.157748 0.012665
-0.159047 -0.182127 -0.377033
-0.113875 -0.163277 -0.148943
0.195415 0.179426 -0.222361
0.189864 -0.167236 -0.234563
-0.182301 -0.138872 0.253356
-0.160714 -0.005454 0.081688
-0.152269 -0.198027 0.192901
0.176340 0.186436 0.005629
-0.161898 0.033716 0.246137
-0.127139 0.135681 0.000164
-0.141077 -0.122724 0.040712
0.195014 0.180875 -0.013186
-0.192452 -0.068148 0.250771
0.191467 0.167864 -0.195630
-0.138083 0.118250 0.151768
-0.078013 0.110381 0.003558
0.187366 0.073858 -0.021544
-0.149271 -0.044416 0.182453
-0.164952 0.136045 0.317225
-0.081592 -0.068143 0.007516
0.197740 -0.177308 -0.272985
0.179382 -0.173164 -0.007363
-0.201527 0.095288 0.350187
-0.167285 0.097949 0.314301
0.003677 -0.112374 0.009293
-0.046878 0.119190 -0.009219
0.016579 0.131085 -0.014267
0.178223 0.193913 -0.375457
-0.110430 -0.169597 -0.258312
-0.201213 -0.124591 0.369329
-0.017613 -0.140913 0.005300
0.189876 0.178041 -0.319798
-0.207798 -0.023536 0.378202
0.104626 0.179089 -0.010845
-0.140500 -0.052731 0.107003
-0.150257 0.170846 -0.361536
-0.113003 -0.157846 0.010873
0.185130 0.038237 -0.021267
-0.133970 0.170443 -0.312810
-0.040613 0.108012 0.005314
-0.005390 -0.118011 0.006963
-0.172168 0.035781 0.113214
0.040647 0.011999 -0.012622
-0.039408 -0.072509 -0.014665
-0.161343 -0.017496 0.090057
-0.120345 0.167216 0.074097
-0.128171 -0.153057 0.031049
-0.171507 0.042887 0.304964
-0.152536 0.031564 0.204368
-0.005876 0.163425 -0.008704
-0.157684 0.033101 0.223839
-0.203293 -0.083655 0.350101
-0.007038 0.045739 0.006929
0.172928 -0.072674 0.003101
0.182996 0.187425 -0.351968
0.017829 -0.101333 0.007846
-0.168755 0.172392 0.182533
-0.201654 0.122053 0.374510
-0.164107 0.170314 0.159871
0.185866 0.174413 -0.126568
0.186016 0.192746 0.009865
-0.063839 -0.093336 -0.012942
-0.135511 -0.196262 0.164433
-0.180755 -0.060119 0.353259
-0.189833 -0.007931 0.239313
-0.205374 -0.104946 0.362921
0.086093 0.019769 -0.013523
0.089508 0.208669 0.000646
-0.077678 0.008566 0.001225
-0.170100 0.196351 0.249434
-0.159997 0.020361 0.082417
-0.117204 -0.021855 -0.000417
-0.185264 -0.090995 0.239535
-0.051897 0.071725 0.004827
-0.034704 0.135066 0.007258
0.123248 0.020294 -0.017331
-0.179930 -0.057004 0.211459
-0.011991 -0.156551 0.006609
-0.167978 0.007242 0.107185
-0.027463 0.107202 0.005644
-0.183466 -0.085542 0.222311
-0.182491 0.170303 0.293509
-0.195662 0.019865 0.276469
-0.208079 0.050004 0.366310
0.203920 -0.019332 -0.019115
-0.179081 -0.047102 0.175495
-0.012005 -0.188339 0.008034
0.115319 -0.032536 -0.014283
0.160008 0.198438 0.006778
0.165676 -0.192140 0.011817
-0.154208 -0.088299 0.267447
0.201374 -0.174535 -0.118465
0.027609 -0.200972 -0.000270
0.136226 0.093209 -0.018448
-0.076676 -0.037933 0.004922
-0.206974 0.024489 0.358374
-0.097647 0.139699 0.020884
-0.155577 -0.086657 0.257688
-0.199056 0.003624 0.305230
0.074100 -0.167035 0.002644
-0.089638 0.012270 -0.011517
-0.150886 0.152282 0.080390
-0.119132 -0.166530 -0.252665
0.193074 0.090500 -0.002426
-0.099646 0.102322 -0.012026
-0.131993 0.042101 0.011209
-0.093606 0.153598 0.013743
0.148412 0.191913 0.000274
-0.163969 0.054862 0.270026
0.196048 -0.171112 0.008099
-0.024613 -0.070868 -0.025807
-0.155443 0.132036 0.120463
-0.185833 0.108015 0.260315
-0.046440 0.134882 -0.014029
0.195072 0.184521 -0.372200
0.149964 -0.159406 -0.011075
-0.124859 -0.017403 0.037716
0.102913 -0.190146 0.004976
-0.178939 0.164678 0.241953
0.065039 0.150051 0.005205
-0.030438 0.028221 0.003880
-0.115100 0.169836 -0.182240
-0.151548 0.146230 0.074886
0.190598 0.173267 -0.042732
0.117967 -0.166337 -0.000968
0.007516 0.021515 -0.012054
-0.146788 0.034201 0.118565
-0.076110 -0.168434 -0.002394
-0.050397 -0.189579 0.005286
-0.139914 -0.097022 0.085484
