ply
format ascii 1.0
element vertex 1689
property float x
property float y
property float z
end_header
-0.055347 -0.059204 0.005800
-0.171686 0.046888 0.363865
0.117673 -0.104997 0.022017
-0.128845 0.193963 0.037177
-0.162637 -0.189078 -0.111186
-0.175908 -0.038665 0.253040
0.036197 0.015544 0.046566
-0.147191 0.138653 0.024958
-0.135747 0.085179 0.033139
-0.130082 0.024819 -0.008522
-0.167271 0.120900 0.357479
-0.175226 -0.073278 0.335485
0.101439 0.218523 0.036416
-0.176669 0.203789 0.322670
-0.114190 -0.191610 0.037920
-0.144166 0.220526 0.024885
0.051358 -0.144901 0.051592
0.076655 0.209552 -0.143946
-0.012568 0.176749 0.020895
-0.132595 -0.186780 -0.025472
0.046903 -0.191531 0.048876
-0.175331 0.038590 0.253114
0.016884 0.082108 0.004988
-0.150468 -0.096679 0.012467
0.086668 -0.118271 0.024460
0.107043 0.016357 0.017379
-0.175861 -0.015507 0.285192
0.052811 0.227173 0.012713
-0.068406 0.149444 0.012557
-0.167555 0.198472 0.143642
-0.022737 0.202977 0.047707
0.121340 -0.047234 0.049886
0.185705 -0.158677 0.033768
0.051525 0.136728 0.050684
0.094373 -0.229657 -0.271319
-0.174678 -0.027281 0.364961
0.163488 -0.027761 0.047729
0.193449 -0.034201 0.029270
-0.173377 0.117055 0.220512
0.099365 -0.233025 0.033447
0.078242 -0.150705 0.024939
0.114608 0.184879 0.049503
-0.048913 -0.164773 0.012549
-0.159796 -0.209298 0.080734
0.023912 -0.075346 0.048394
0.004373 -0.011751 0.044738
-0.173923 0.154012 0.290242
0.074939 0.163333 0.018968
0.011121 0.035041 0.004862
-0.015010 0.142757 0.048519
0.177674 0.043954 0.030034
-0.157240 -0.207313 -0.223713
0.132678 -0.181086 0.019049
-0.018949 0.058300 0.044753
0.088007 0.227421 -0.317510
0.174272 0.099050 0.040900
0.067674 -0.045376 0.047839
0.044450 -0.047067 0.009885
-0.183154 0.004834 0.210308
0.071651 0.081269 0.013684
0.105443 0.045775 0.046614
-0.158634 0.207922 0.078478
0.138297 0.013839 0.049041
-0.183337 0.228672 0.213519
0.023893 0.210380 0.047432
-0.172632 -0.181644 -0.314302
0.106964 0.225274 -0.063896
0.022674 -0.096986 0.012501
-0.013862 0.020635 0.001765
-0.145564 0.190307 -0.300627
0.117108 -0.225964 -0.003016
-0.177428 -0.160994 0.241585
-0.000767 -0.133565 0.022227
0.117466 0.105009 0.022235
0.092690 -0.225666 -0.108928
-0.090661 -0.099203 0.013691
-0.025601 0.226128 0.026648
-0.105665 0.068454 0.002276
0.189460 -0.104909 0.037369
0.096965 0.235858 0.028146
0.079112 -0.206456 -0.200287
-0.143511 -0.222357 0.032960
0.083593 -0.162303 0.050158
-0.170017 -0.064718 0.257393
-0.092841 -0.211727 0.012562
0.064271 -0.104312 0.053773
-0.114319 -0.017993 0.005676
-0.166629 0.178209 -0.149588
0.142054 0.207493 0.027599
-0.049049 -0.110416 0.041297
0.060466 0.017631 0.006244
-0.146930 0.022622 0.022238
-0.170858 0.189991 0.354382
-0.106795 0.052238 0.033869
-0.175657 0.061866 0.326527
-0.116014 0.220507 0.049313
0.085883 0.220641 -0.047897
0.048483 0.183265 0.018080
0.010807 -0.187329 0.012193
0.162767 0.114226 0.048745
-0.068068 -0.186735 0.035877
-0.039830 -0.115257 0.010988
-0.035229 -0.171334 0.045514
-0.179374 -0.210515 0.260195
-0.173277 -0.077964 0.343767
-0.172439 -0.176368 0.329346
-0.157336 -0.215659 -0.101841
0.090097 -0.044315 0.012673
-0.103653 -0.073148 0.036003
0.165095 0.223715 0.032861
-0.152424 0.189443 -0.321954
-0.071945 0.029780 0.035138
0.072539 -0.191423 0.015729
0.000323 0.229108 0.047193
-0.177219 0.173800 0.260023
0.173784 0.192523 0.023061
-0.005980 0.139150 0.014107
-0.024906 -0.059753 0.004829
-0.102692 0.118488 0.033754
0.150967 -0.111302 0.023644
0.101275 -0.199661 0.010382
0.160767 -0.149444 0.034222
-0.100391 0.040021 0.005650
0.168356 -0.229205 0.022944
0.089001 0.208167 0.048915
0.169313 -0.040659 0.030585
-0.167870 0.207928 -0.119996
0.141240 0.026665 0.024558
0.024069 -0.210360 0.047405
0.091342 0.216760 -0.230293
-0.075969 0.179896 0.008902
0.071725 -0.234909 -0.166353
0.115923 -0.227034 0.004830
0.087054 -0.230170 -0.314170
0.050146 0.223651 0.022397
-0.147863 -0.040750 0.024376
-0.172905 -0.178078 0.242945
-0.175738 -0.047451 0.284957
-0.149040 0.185167 -0.003750
-0.167639 0.196862 -0.259847
-0.151844 0.197057 0.011357
0.011581 -0.117216 0.007595
0.067695 0.045513 0.047732
-0.158984 -0.200184 -0.183931
-0.139473 -0.171405 0.020612
0.102966 -0.080899 0.017574
-0.178040 -0.157562 0.264369
0.114476 -0.184781 0.049770
-0.157982 -0.182944 -0.097308
-0.175081 0.113582 0.339865
-0.179978 0.166977 0.212398
-0.168391 0.179320 -0.340149
0.014633 0.177819 0.031323
-0.039467 -0.057421 0.045004
-0.158751 0.224070 0.075753
-0.109707 -0.159831 0.018090
0.078280 0.047332 0.008434
0.081758 -0.223616 0.009106
-0.181011 -0.005730 0.210371
-0.173566 -0.201825 0.340978
-0.164871 -0.181459 -0.148993
-0.084320 0.213826 0.031505
0.080946 0.213431 -0.287364
-0.127888 0.049436 -0.026550
-0.166798 -0.198162 0.116469
-0.157881 0.209478 0.052231
0.168802 0.086082 0.022014
-0.179037 0.210516 0.260209
0.125253 0.230819 0.036663
0.074010 -0.210762 -0.099976
-0.123677 -0.028949 0.031859
-0.085820 -0.118345 0.038220
0.079040 0.098213 0.052913
0.137991 0.196483 0.050827
-0.164544 0.179445 -0.220147
0.011580 0.117198 0.007473
0.005025 0.228254 0.034764
-0.169935 0.064716 0.257369
-0.146956 -0.135345 0.025088
0.071816 -0.235859 -0.166109
-0.142471 0.025679 0.021419
0.103181 0.081303 0.017588
-0.177923 0.157749 0.264358
0.010724 0.187493 0.012176
-0.010737 0.087632 0.043228
-0.164612 0.190752 -0.305241
-0.149575 0.056230 0.018907
-0.094072 -0.219549 0.045133
-0.137130 -0.198648 0.025140
0.048778 0.088337 0.009433
0.164850 -0.173680 0.041197
-0.182606 0.211609 0.287262
-0.135581 0.157115 0.039275
-0.166144 0.231420 0.196632
-0.123511 -0.136563 0.020164
-0.160678 -0.206080 -0.270708
-0.049141 0.165275 0.012415
0.074270 -0.227863 -0.222210
0.144460 -0.152013 0.051751
-0.159235 0.218343 0.073436
-0.164777 -0.179445 -0.220156
0.171564 -0.067379 0.023760
-0.079550 0.013917 -0.001480
0.090409 -0.229345 -0.268772
0.091732 0.209665 -0.230802
0.156434 0.050549 0.024109
0.053048 0.199423 0.013471
0.047461 0.124080 0.049511
-0.180458 -0.049587 0.215284
0.090791 0.220448 -0.246424
-0.082759 -0.054188 0.003126
-0.158750 0.206825 -0.202596
-0.132230 0.062350 0.018969
0.070343 -0.183131 0.049837
0.163908 0.135789 0.048558
-0.152757 0.216394 0.056238
-0.092256 0.101126 0.036512
-0.179020 -0.208274 0.201659
-0.067889 0.186757 0.035835
0.099223 0.233022 0.033449
0.052233 -0.226092 0.012140
-0.176677 0.027012 0.327451
0.091104 0.196380 0.022897
-0.024993 -0.168649 0.007192
-0.120360 0.201680 -0.023310
-0.029976 0.094353 0.004860
-0.181260 -0.008554 0.239709
-0.123125 -0.000627 -0.005164
0.141890 0.228943 0.041749
0.083111 0.226722 -0.138444
0.001264 0.198821 0.002045
-0.123040 -0.211918 0.023243
-0.176195 0.018831 0.363267
0.041147 0.101575 0.048214
-0.171065 0.231317 0.154996
-0.177328 0.150574 0.359206
-0.170180 -0.218037 0.095979
0.150077 0.063783 0.024075
-0.166945 0.210418 -0.120638
-0.000476 0.037283 0.046263
-0.041297 0.026384 0.044149
0.118663 0.135902 0.051997
-0.149766 -0.185833 -0.008331
-0.182481 -0.211588 0.287273
-0.150450 -0.214260 0.041503
-0.168896 -0.182659 -0.278422
-0.168097 -0.179956 -0.339841
-0.158624 0.207449 0.081167
0.133109 0.039038 0.051504
0.047523 -0.000040 0.043089
0.169835 0.149525 0.022969
0.069471 0.208102 -0.118700
0.157523 -0.043969 0.024013
-0.177360 0.129999 0.309679
0.087212 -0.207836 -0.276651
-0.044202 0.041497 0.009552
0.147243 -0.103165 0.048836
-0.176169 -0.110556 0.232724
-0.004707 -0.011307 0.002991
-0.123270 0.211878 0.023092
-0.175806 -0.129262 0.294737
0.118412 -0.136020 0.052070
0.055560 -0.098542 0.011187
-0.177420 -0.150614 0.359302
0.094317 0.229796 -0.271335
0.109718 -0.212236 0.000260
-0.175051 0.175017 0.312416
-0.158998 -0.208751 0.077866
0.028529 -0.147503 0.017223
-0.092682 -0.175705 0.025890
-0.053597 -0.147858 0.039201
-0.000411 -0.037181 0.046095
-0.092862 0.175697 0.025886
0.074227 0.206597 -0.176681
-0.135694 -0.157194 0.039202
-0.173184 0.054044 0.227833
-0.141067 0.178558 0.000147
-0.176375 -0.048010 0.354624
-0.118074 0.185793 -0.005503
-0.082721 0.054202 0.003076
-0.073209 0.103405 0.002265
-0.121262 0.008405 0.030413
0.127161 -0.204170 0.014685
-0.091679 -0.016234 0.034064
-0.177394 -0.176966 0.226752
-0.044197 -0.041527 0.009408
-0.109694 0.159826 0.018262
-0.134115 -0.079702 0.016755
-0.174002 0.047250 0.268102
0.181838 0.129465 0.038998
0.106883 -0.016367 0.017445
-0.129503 -0.081517 0.033692
0.085578 -0.230496 -0.226696
-0.171432 0.020197 0.236835
-0.064560 -0.203127 0.006691
0.028014 0.058613 0.007685
-0.018631 -0.217950 0.022555
-0.172774 -0.196292 0.187241
-0.188732 0.141584 0.218019
0.025019 0.235254 0.046344
0.016305 0.150861 0.051060
-0.013352 -0.076046 0.008249
-0.173968 -0.196651 0.355029
0.174530 -0.109020 0.032568
-0.173191 -0.237747 0.317118
-0.041249 -0.027163 0.043913
0.005025 -0.228266 0.035151
0.105162 -0.045368 0.046455
-0.017128 0.217372 0.021015
-0.152572 -0.189502 -0.321997
0.117287 -0.190756 0.034773
-0.175944 0.015749 0.285154
0.023774 0.075115 0.048002
-0.127892 -0.049248 -0.026556
-0.007166 -0.190040 0.046135
-0.170351 -0.207930 0.149322
0.106767 -0.110499 0.023768
-0.137356 0.198600 0.025330
0.076262 -0.209704 -0.322002
0.025760 -0.137628 0.016784
0.164735 0.173276 0.041060
0.028015 -0.058469 0.007692
-0.064554 0.203127 0.006567
0.069069 -0.057947 0.006924
0.048265 -0.224977 0.020391
0.163506 0.027421 0.047517
-0.153464 0.084964 0.017724
0.065459 0.202911 0.033338
-0.175401 -0.113643 0.339754
-0.058679 0.096721 0.043301
-0.145270 0.189322 -0.300204
-0.169663 0.208052 -0.307544
0.199779 0.043542 0.036371
-0.147494 -0.072688 0.022185
-0.158015 0.208850 0.073613
-0.170925 0.222520 0.171657
-0.177971 0.092858 0.266528
-0.184045 0.000044 0.262106
0.014508 -0.177799 0.031114
-0.155750 0.211414 -0.053264
0.041725 -0.095493 0.043227
0.180945 -0.135778 0.038437
0.097000 -0.235713 0.028219
-0.173376 -0.117052 0.220667
-0.019057 0.161647 0.042394
-0.154270 -0.199106 -0.079112
-0.041090 0.209857 0.044585
-0.013035 0.121234 0.045950
-0.176586 -0.027248 0.327836
0.004374 0.011927 0.044801
-0.171684 -0.238472 0.290149
0.196003 -0.000272 0.028260
-0.133527 -0.000064 0.005145
0.160274 0.013260 0.025917
-0.149854 0.185803 -0.007794
0.121514 -0.022421 0.049478
0.086030 -0.220509 -0.048145
0.054321 -0.061472 0.049134
0.106400 0.110719 0.023753
-0.141604 0.152738 0.005636
-0.165059 -0.224704 0.165455
-0.169667 -0.208613 -0.307535
-0.153588 -0.191888 0.044151
0.129083 -0.130302 0.051870
-0.180448 -0.000085 0.307464
-0.113161 0.204633 0.040691
0.089022 0.224458 -0.268756
-0.117984 -0.164753 0.035571
0.034129 0.113722 0.007505
-0.157759 -0.209729 0.052512
-0.059585 -0.110812 0.016085
0.067910 0.235285 0.030563
-0.071979 -0.029897 0.035393
0.028634 -0.032471 0.005199
0.147285 0.103172 0.048681
-0.116003 -0.220451 0.049234
0.143010 -0.094460 0.021524
0.086088 0.227492 -0.140755
-0.168630 0.097867 0.361248
0.120575 0.241225 0.016332
0.142330 -0.207557 0.027782
0.048386 0.224790 0.020192
-0.155800 -0.204932 -0.239657
-0.173776 -0.159169 0.305393
-0.025380 -0.226312 0.026597
-0.167762 -0.000356 0.232104
0.158489 -0.000169 0.047552
-0.162155 -0.206466 -0.338267
-0.163415 0.180871 -0.170734
0.071737 0.229364 -0.321798
0.047451 0.215445 0.046065
-0.056140 -0.000132 0.001933
0.102320 0.066651 0.050858
-0.179590 0.231293 0.278483
0.124555 0.228430 0.034394
-0.131161 0.161621 -0.007766
0.091865 -0.229119 -0.272835
-0.114341 0.017993 0.005589
0.054798 -0.203064 0.021421
-0.015340 -0.160158 0.047072
0.121476 0.022403 0.049644
-0.162418 -0.226776 0.113551
-0.165500 0.206928 -0.118573
-0.166789 0.238964 0.291524
-0.182235 -0.061906 0.235556
-0.002618 -0.070275 0.046407
-0.148736 -0.106687 0.020527
-0.030194 -0.072303 0.045640
0.047449 -0.215445 0.046202
0.162746 0.082349 0.048538
-0.146452 -0.138430 0.024553
0.078799 -0.225192 -0.181024
-0.080449 0.145753 0.038208
0.051048 0.143335 0.051386
0.121761 0.007685 0.020859
0.076920 -0.209274 -0.145233
0.083593 0.162152 0.050137
0.038134 -0.196392 -0.004142
-0.173997 -0.153822 0.290096
-0.179062 0.232150 0.338675
-0.144899 0.179589 -0.345719
-0.142168 0.063060 0.028812
0.161273 0.232209 0.033873
-0.174757 0.041427 0.307498
-0.169934 -0.051844 0.262913
-0.180634 -0.188804 0.302674
0.187380 -0.058303 0.041694
-0.061423 -0.203938 0.045863
0.008178 -0.100416 0.045845
0.077042 -0.018628 0.047242
0.053473 -0.199293 0.013505
0.081057 0.212786 -0.286415
-0.055320 0.059102 0.005558
-0.131744 0.022237 0.008607
0.083459 -0.186434 0.021126
0.024270 0.191338 0.046428
-0.181687 -0.030569 0.221825
-0.040215 0.215027 0.023806
0.126264 0.236843 0.033703
-0.038739 0.139378 0.043194
-0.152884 0.193088 0.006956
0.048881 -0.150407 0.049228
0.076266 -0.144224 0.050377
-0.172782 0.226001 0.329693
0.006391 -0.219930 0.042153
0.143581 -0.184493 0.055480
0.167225 0.191011 0.035032
-0.175181 0.070472 0.308518
-0.039885 0.183525 0.043987
0.079054 -0.227534 -0.103532
-0.156569 0.216474 -0.077666
-0.148725 -0.192726 -0.314775
-0.164503 0.182492 -0.149782
0.127094 0.082714 0.024701
-0.185435 -0.071921 0.206563
-0.129569 -0.024822 -0.008408
-0.151848 0.193684 0.007835
-0.173060 -0.062213 0.302360
0.095635 -0.215617 -0.051525
-0.154728 0.201666 -0.018038
0.060244 0.236261 0.040015
-0.080247 -0.179395 0.014093
-0.175980 0.069804 0.365154
-0.015621 -0.038074 0.002752
0.058168 0.031091 0.044272
-0.123452 -0.064140 0.031968
-0.001250 0.086023 0.005333
0.117936 0.000254 0.049549
-0.145403 0.118849 0.025386
0.062943 0.121308 0.010898
0.083008 0.194756 0.015550
0.131816 0.109727 0.051156
0.031496 0.241489 0.011631
0.174746 -0.097258 0.041990
-0.111060 -0.162887 0.011815
0.072104 0.235580 -0.166189
-0.059493 -0.080636 0.042352
-0.166643 0.179488 -0.148150
-0.053037 -0.045466 0.041422
-0.044291 -0.107695 0.010052
-0.164448 -0.190679 -0.304862
0.055156 0.202807 0.021177
0.128865 -0.154966 0.025999
-0.008182 0.161993 0.031716
-0.169040 0.182404 -0.278284
0.117337 0.190422 0.034549
-0.159046 0.206854 -0.202842
-0.030110 0.120395 0.023831
-0.059505 0.080636 0.042497
-0.040490 -0.214850 0.023818
0.164096 0.179444 0.043137
-0.081131 -0.205336 0.043064
0.086174 -0.063904 0.014955
-0.191174 0.092642 0.212414
-0.171297 -0.196304 0.315682
-0.188441 -0.141583 0.218135
-0.176836 0.015227 0.247465
0.110314 0.214139 -0.000325
-0.155687 -0.218489 -0.165639
0.118504 0.146257 0.022467
-0.117526 -0.176151 0.017221
0.102925 -0.201526 0.018392
0.090068 -0.228925 -0.268972
-0.155470 -0.205762 -0.014611
0.089313 -0.000271 0.017398
-0.180133 0.227245 0.237497
-0.053008 0.045464 0.041575
-0.084304 -0.214015 0.031536
0.145689 0.093691 0.023140
0.115030 0.222004 -0.038824
-0.035522 -0.082001 0.003244
0.009689 -0.086111 0.047707
-0.094081 0.219680 0.045106
-0.123613 0.029218 0.031803
-0.053001 -0.156550 0.025173
-0.176469 0.163769 0.248125
0.065621 -0.203056 0.033218
-0.165356 -0.210521 -0.096501
-0.168638 -0.097870 0.361098
0.028745 0.032620 0.005295
-0.003403 0.039931 0.003980
-0.162415 0.226709 0.113505
-0.125528 0.168526 0.035175
0.074806 0.221707 0.047737
-0.173932 -0.218789 0.249620
-0.173215 -0.158495 0.346871
-0.172813 0.200533 0.257444
-0.049057 0.110413 0.041439
0.126958 0.204103 0.014705
-0.185432 0.027581 0.215481
0.115040 -0.221970 -0.038885
-0.144937 0.194993 -0.313389
-0.161286 0.202304 -0.230619
0.117233 0.041816 0.024733
0.176911 0.103714 0.034016
0.068540 -0.233570 -0.003608
0.132134 -0.034975 0.023399
-0.107205 -0.052051 0.033958
-0.145563 -0.182580 -0.018183
-0.024358 -0.011122 0.041759
-0.075318 -0.087627 0.027513
0.034773 -0.061234 0.048109
-0.020601 -0.134831 0.041401
-0.020880 0.218941 0.024592
-0.104813 -0.100841 0.035011
0.089994 -0.215501 -0.230343
0.091669 0.094605 0.016182
0.016282 -0.151047 0.050963
-0.036578 0.013396 0.001273
0.138001 -0.196424 0.050808
-0.164210 -0.180531 -0.173042
-0.157483 0.215735 -0.101841
-0.128924 -0.193879 0.037464
-0.018673 0.217592 0.022419
0.014334 -0.204875 -0.000026
-0.085788 0.118363 0.037966
-0.085098 -0.063211 0.035926
0.101642 0.058968 0.017373
-0.007979 -0.161963 0.032017
-0.170844 -0.140602 0.218685
-0.154555 -0.202068 -0.029883
-0.177577 -0.218923 0.194946
0.086779 -0.036213 0.047651
-0.175994 0.072406 0.262199
0.184652 -0.078796 0.041711
0.090701 -0.214146 -0.230611
0.189653 -0.010522 0.030338
0.036197 -0.015413 0.046562
-0.155057 0.202016 -0.029079
0.081059 -0.212907 -0.286509
-0.175514 -0.025441 0.311172
0.063056 -0.121685 0.010861
0.079203 -0.177417 0.027870
-0.140444 -0.157322 0.031292
0.123638 0.174564 0.026342
-0.159296 0.209851 -0.150902
0.014401 0.204912 -0.000077
-0.168719 0.188072 -0.348951
-0.129606 -0.043617 0.013233
-0.172152 -0.009094 0.358793
-0.001256 -0.086064 0.005511
-0.166037 -0.187051 -0.144568
-0.163344 -0.204855 -0.324201
0.100162 0.202766 0.005991
-0.177961 -0.092868 0.266774
0.117224 -0.041689 0.024316
-0.017814 -0.105478 0.046059
0.160190 -0.013252 0.025432
0.143406 0.079320 0.023837
-0.105762 0.152025 0.032344
0.167368 -0.193155 0.034420
0.187427 0.058317 0.041742
0.036308 0.041733 0.047767
-0.178556 0.207945 0.201933
-0.061441 0.221664 0.039590
-0.052529 0.137120 0.043339
0.090065 0.080161 0.052252
0.017361 -0.016292 0.001220
0.083476 -0.223830 -0.222058
0.093720 0.221170 -0.214862
0.189337 0.105069 0.037367
-0.167202 -0.186366 -0.209767
-0.116305 0.113772 0.031977
0.093732 -0.220939 -0.214971
-0.050839 0.188955 0.012686
0.115626 -0.227945 0.002809
-0.155164 -0.222048 0.067242
-0.166291 -0.231391 0.196666
0.077117 0.018795 0.047244
-0.117557 0.176201 0.017128
-0.172312 0.095650 0.300852
-0.081050 0.160585 0.035139
-0.144424 -0.196457 0.009395
-0.173317 0.077934 0.343791
0.073834 0.227746 -0.222770
-0.159584 -0.207219 -0.200947
-0.186783 0.119622 0.224891
0.130897 0.229714 0.005483
-0.173027 -0.107671 0.345891
-0.176030 -0.131741 0.334655
-0.025277 0.168850 0.006869
-0.109799 0.116176 0.009863
0.122424 -0.121854 0.025102
0.055734 0.098495 0.011310
-0.174372 -0.056890 0.336835
-0.012465 -0.176680 0.020742
0.047043 0.191463 0.048369
0.090472 -0.228629 -0.268776
0.016737 -0.082296 0.004969
-0.103645 0.073022 0.036031
-0.169157 -0.210120 -0.225893
-0.102718 -0.118505 0.033716
0.034204 -0.113597 0.007488
-0.180076 -0.235172 0.297772
-0.155240 0.201270 -0.019427
-0.178248 0.190732 0.335666
0.177592 -0.043935 0.030252
-0.102506 0.189826 0.032500
-0.109674 -0.116114 0.009879
-0.170542 0.199963 0.297247
0.052432 0.135638 0.008087
-0.180516 0.216951 0.357658
-0.007082 0.190040 0.046234
0.086246 0.227507 -0.139623
-0.155948 -0.190669 -0.240110
-0.167221 -0.198755 0.143644
-0.136597 0.085584 0.026241
-0.131448 0.062000 0.019826
-0.073197 -0.103669 0.002356
0.045507 0.065982 0.010858
-0.176505 -0.028292 0.345997
0.086409 -0.217771 -0.339502
0.052258 0.226484 0.012560
0.147872 0.156820 0.036901
0.169715 -0.149355 0.022992
0.002078 -0.211567 0.047757
0.177556 0.155801 0.032651
0.002170 0.211669 0.047871
-0.176818 0.160908 0.263781
-0.176330 -0.077235 0.350558
0.044759 0.015481 0.000274
-0.177700 -0.016189 0.249056
-0.081320 -0.160730 0.035103
0.053216 -0.224651 0.004463
-0.181747 -0.037557 0.212996
0.087205 0.230115 -0.314154
0.158668 0.161414 0.025194
0.091381 0.219613 -0.244360
-0.140992 0.170071 -0.039084
0.028382 0.147487 0.017280
0.120450 -0.240909 0.016091
-0.164738 0.221474 0.129603
0.158681 -0.161598 0.025213
0.080941 0.226630 -0.301200
-0.148465 -0.105741 0.017271
-0.160393 0.205810 -0.270331
-0.153665 0.191969 0.044342
0.079284 0.176985 0.027801
0.091924 0.055512 0.049577
0.130827 -0.228458 0.014692
-0.152551 -0.196770 0.054663
-0.175169 -0.176350 0.279519
0.143572 0.184504 0.055358
0.085344 0.227240 -0.139573
0.100579 -0.017363 0.048351
-0.147635 0.179485 -0.345037
-0.058251 0.154151 0.041522
0.014337 -0.057165 0.047654
-0.074467 -0.046969 0.035177
0.048481 -0.183248 0.017835
-0.176410 0.038471 0.298201
0.087867 -0.216417 -0.254329
0.069515 -0.207929 -0.118706
-0.107354 0.000018 0.031078
-0.149815 -0.164292 -0.028117
0.089482 0.208058 -0.297235
-0.086389 -0.079826 0.037768
-0.177847 0.218915 0.195203
-0.157151 -0.182685 -0.055638
-0.176654 0.028286 0.345997
0.082042 -0.201732 -0.273957
-0.171250 -0.204106 0.241419
0.168765 -0.086085 0.021858
-0.176075 -0.114439 0.286894
-0.045665 -0.129422 0.017468
-0.094203 -0.021956 0.031114
-0.146429 -0.134769 0.025882
0.048828 0.150454 0.049265
-0.145413 -0.118680 0.025358
-0.131999 -0.022281 0.009058
0.086853 0.036563 0.047771
0.081802 0.223583 0.009217
-0.131688 -0.105480 -0.036298
0.015976 -0.049015 0.003111
0.047561 -0.124061 0.049674
-0.044771 -0.226979 0.035923
-0.172394 0.179668 0.209213
-0.126446 -0.000105 -0.028806
0.055315 0.033349 0.005847
-0.158361 -0.203222 -0.186167
-0.167488 -0.191978 -0.262005
-0.162379 0.207373 -0.327132
-0.158072 0.223692 0.075322
-0.110692 0.159281 0.027068
-0.183777 -0.027318 0.208434
-0.136528 -0.074789 0.019647
0.076069 -0.121839 0.053548
0.091664 -0.094615 0.016342
-0.149281 0.037401 0.019699
0.151168 0.023469 0.047884
-0.159111 -0.201316 -0.042593
-0.162096 -0.207603 0.113086
0.050709 0.196192 0.040214
0.189639 0.010578 0.030297
-0.087939 0.123056 0.024871
-0.017323 -0.025267 0.045664
0.081958 0.201776 -0.273856
-0.145448 -0.190421 -0.300359
-0.094405 0.184208 0.038231
0.026688 -0.000077 0.047002
0.125599 -0.230447 0.034653
-0.161793 0.207746 -0.142305
-0.160593 0.223155 0.095411
-0.056024 0.011565 0.038444
-0.152063 -0.214460 -0.060860
-0.160736 -0.209031 0.079963
-0.080411 0.221948 0.040102
-0.182954 0.189444 0.247139
0.157200 0.049699 0.049752
0.108352 -0.218919 0.047001
0.084805 0.213380 -0.266015
-0.179959 -0.227406 0.237403
-0.133923 0.007526 -0.016294
0.168342 0.229052 0.022939
-0.029745 0.072343 0.045512
0.141276 -0.119093 0.026297
-0.168917 -0.188157 -0.349044
0.177234 -0.103177 0.034018
-0.154435 0.199092 -0.079101
-0.122665 0.110861 0.016711
-0.173423 0.159174 0.305504
-0.101092 -0.080087 0.003511
-0.164932 -0.206919 -0.118807
-0.154646 -0.202517 -0.028832
-0.006247 0.102756 0.007098
-0.175906 0.129711 0.294358
-0.176232 0.114733 0.286834
0.108348 0.218831 0.046973
0.123722 -0.174682 0.026257
0.074658 -0.221707 0.047743
0.058308 -0.031089 0.044272
0.072181 0.226279 -0.160464
-0.146194 -0.175535 0.031224
-0.180403 -0.217072 0.357686
0.075011 -0.089257 0.051912
-0.132588 0.186419 -0.025521
0.122283 0.121849 0.025103
-0.108942 -0.154814 0.031403
-0.167390 0.232209 0.267537
-0.061131 0.167854 0.043981
-0.165848 0.178359 -0.171940
-0.074429 0.047030 0.035058
0.125370 0.230005 0.033941
-0.148835 0.192705 -0.314760
0.052665 -0.201269 0.021737
0.094106 -0.215013 -0.249908
-0.173042 0.062216 0.302162
0.133109 -0.038911 0.051476
-0.169032 -0.215108 0.171085
-0.050100 0.030945 -0.000998
0.100496 0.017263 0.048425
-0.179064 -0.231907 0.338706
0.118678 -0.146271 0.022464
-0.099228 -0.187229 0.037509
0.180761 0.135817 0.038403
-0.013227 -0.231181 0.031186
0.130490 -0.078919 0.051451
-0.179005 0.008013 0.338760
-0.155341 0.212017 -0.009700
-0.170707 -0.184391 -0.309993
0.128799 0.130332 0.051856
-0.159222 0.208038 0.077716
-0.000184 -0.139762 0.048517
0.078595 0.016423 0.008042
-0.105672 -0.068417 0.002172
0.200021 -0.043579 0.035502
-0.181154 0.005939 0.210132
-0.172654 0.181852 -0.314463
-0.173604 -0.086564 0.247876
0.076180 -0.221597 -0.125877
-0.152224 0.186173 -0.335692
-0.125526 -0.168646 0.035174
0.059792 -0.090617 0.011040
0.087666 0.216740 -0.254644
0.130600 -0.158337 0.048562
-0.027727 -0.214093 0.049243
0.067841 -0.235222 0.030640
-0.155255 0.217566 0.055790
-0.182170 -0.043741 0.214614
-0.085221 0.063056 0.035798
0.162968 -0.229318 0.035955
-0.150168 -0.180064 -0.347327
0.066213 0.205315 -0.032728
-0.177097 -0.169209 0.233514
0.147893 -0.157066 0.036864
-0.075338 0.087793 0.027564
-0.182446 0.113561 0.219348
0.115598 0.227709 0.003201
0.081158 -0.226733 -0.301777
-0.142174 0.003888 0.025240
-0.179515 0.110844 0.232927
-0.156629 0.191242 -0.240461
-0.165092 0.206915 -0.118589
0.115697 0.227412 0.004605
-0.038556 0.210920 0.045024
0.054637 0.061424 0.049198
-0.154575 0.184348 -0.249210
-0.175084 -0.170911 0.206077
-0.108434 0.198574 -0.007800
0.083539 0.223850 -0.221612
0.095692 0.215798 -0.051583
0.072057 0.235181 -0.166947
-0.158142 -0.201773 -0.030387
0.188233 0.072702 0.029249
-0.165482 -0.206745 -0.118512
0.135507 0.133759 0.027636
0.162759 -0.114218 0.048610
-0.068345 -0.149519 0.012523
0.071703 -0.229434 -0.321532
0.089879 -0.208443 -0.297379
0.052036 0.222562 0.009341
-0.175892 0.215874 0.313626
-0.057027 -0.088501 0.041121
-0.135351 -0.086048 0.028460
-0.006056 -0.139080 0.014102
-0.159734 -0.224264 0.075062
0.174417 0.109047 0.032519
0.025050 -0.236065 0.046508
-0.167660 -0.185076 -0.288823
-0.157066 -0.207118 -0.224013
0.076118 0.221884 -0.126080
0.171524 0.067359 0.023706
-0.184914 -0.014091 0.259991
0.019181 0.026764 0.047692
-0.171169 0.204014 0.241291
0.034923 0.061234 0.048113
-0.184853 0.226500 0.308057
-0.159254 0.200470 -0.183444
0.033493 0.220739 0.009174
-0.163658 -0.215138 0.110659
-0.168585 -0.179974 -0.138142
-0.092455 -0.101230 0.036455
-0.145195 0.183256 -0.002768
-0.186870 -0.119600 0.224833
-0.170696 -0.199960 0.297252
0.078729 0.210937 -0.150119
-0.137824 0.086255 0.024220
-0.004098 -0.175413 0.012221
0.015931 0.048787 0.003296
-0.147557 -0.171460 0.025448
0.021325 0.232283 0.041709
0.020954 -0.232207 0.041601
0.149551 0.013710 0.028383
-0.059550 0.110305 0.016063
-0.017325 0.025060 0.045654
-0.011760 0.052710 0.006668
-0.146468 0.137680 0.024811
0.164473 -0.193203 0.039977
-0.014081 -0.058474 0.008938
0.185439 0.055767 0.026196
-0.179712 -0.231292 0.278604
-0.173384 -0.232363 0.118208
-0.123327 0.165144 -0.005076
-0.163823 0.189506 -0.110668
-0.174438 0.056153 0.250601
-0.053003 0.156557 0.024957
0.083564 -0.209969 -0.290946
-0.183025 -0.189391 0.246304
-0.056964 0.088640 0.041025
0.066350 0.209770 -0.033666
-0.004706 0.011199 0.002982
0.009470 0.086111 0.047869
0.055260 -0.033366 0.005700
0.098071 -0.233993 0.017671
-0.153120 -0.216628 0.049662
0.101130 0.175647 0.024698
-0.174649 0.145081 0.356665
-0.134467 0.080109 0.017054
-0.172009 0.036219 0.207350
0.104978 0.220367 -0.078562
0.182295 -0.087621 0.030634
-0.174831 0.046824 0.338113
0.174566 0.096885 0.042157
0.087848 -0.228572 -0.316655
-0.145368 0.189702 -0.300381
-0.181467 0.030728 0.222214
-0.174650 -0.170394 0.303944
0.035031 0.006099 0.002164
0.069409 0.057878 0.006919
-0.134581 0.086338 0.038515
0.138207 -0.013833 0.049134
0.168817 0.214766 0.017044
-0.167850 0.179856 -0.339824
-0.166268 0.224766 0.091158
-0.141356 0.209071 0.044778
-0.175061 -0.070220 0.308364
0.118294 -0.247852 0.022254
0.073778 -0.236045 -0.164047
-0.146288 0.193020 -0.299166
-0.157060 0.201370 -0.030021
-0.178720 0.240309 0.289095
-0.083817 -0.030711 0.000892
0.031368 -0.241457 0.011431
-0.123449 0.064223 0.031831
0.089308 -0.222947 -0.126675
-0.050245 -0.030756 -0.001013
-0.180466 0.188792 0.302662
0.165039 0.223416 0.033113
0.156386 -0.050757 0.024562
-0.177740 -0.070512 0.244693
-0.173036 -0.101561 0.350627
-0.185571 -0.119666 0.213713
-0.177849 -0.214197 0.228820
-0.118058 -0.185711 -0.005263
-0.174087 -0.112615 0.232217
-0.142283 0.180764 -0.006525
-0.093147 0.042258 0.035126
-0.175464 -0.215080 0.206871
-0.014970 -0.142758 0.048675
-0.160606 -0.186790 -0.325058
-0.173026 0.172389 0.341364
0.066221 -0.205670 -0.032757
0.101166 -0.175424 0.024634
0.130681 0.158293 0.048245
0.166545 -0.180256 0.042173
-0.179150 0.132919 0.226182
0.091326 -0.219652 -0.244197
0.131811 -0.109580 0.051251
0.075505 0.122230 0.053820
0.017329 0.016686 0.001083
0.072770 0.191375 0.015687
0.090176 0.215585 -0.230607
-0.173511 -0.087528 0.362057
-0.003919 0.175374 0.011792
0.022666 0.096881 0.012482
0.053163 0.000144 0.049100
0.164415 -0.182515 0.027612
-0.173384 0.232362 0.118335
0.104603 -0.124391 0.022915
-0.173071 -0.054210 0.227840
-0.175999 0.131591 0.334661
0.141026 0.119005 0.026295
0.026785 -0.192646 -0.003641
0.076457 0.209681 -0.322095
0.074005 -0.206590 -0.176820
0.178918 -0.148314 0.032873
-0.173433 0.218616 0.249545
-0.094117 0.021838 0.030989
-0.163147 0.189329 -0.110774
-0.117190 -0.046916 0.032662
0.060334 -0.017631 0.006345
-0.144176 0.201601 0.023129
0.084935 -0.202921 -0.282529
-0.173690 0.174463 0.273797
0.089148 0.222810 -0.126502
-0.165730 0.191295 -0.356227
-0.164222 -0.182943 -0.151977
-0.125036 -0.132215 0.026051
0.011014 -0.035117 0.004496
0.166240 0.181852 0.043706
0.083954 -0.228716 -0.280986
-0.152064 -0.180152 -0.332973
0.088662 -0.222562 -0.318404
-0.177917 0.130017 0.302909
-0.177109 0.169129 0.233522
0.083572 0.210458 -0.290658
-0.035154 0.171415 0.045271
-0.016449 -0.087893 0.045357
-0.154634 -0.201753 -0.017883
-0.173053 0.237781 0.317033
-0.166358 -0.212600 0.139017
-0.120531 -0.201872 -0.023386
-0.157539 -0.207366 0.062408
-0.083490 0.030706 0.000815
-0.101610 -0.214645 0.050759
-0.176217 -0.015221 0.247620
-0.035228 0.081494 0.003047
-0.179107 -0.206317 0.312660
-0.177202 0.015655 0.248876
-0.175748 -0.083761 0.288604
-0.177907 -0.190709 0.335729
0.145561 -0.093659 0.023145
-0.113059 -0.142242 0.034707
-0.174152 0.195870 0.187312
-0.030213 -0.120333 0.023890
0.086138 0.063574 0.015021
0.075020 0.089301 0.052026
-0.143229 -0.173696 0.019093
-0.179244 0.238326 0.330739
0.185429 -0.055959 0.026297
-0.119745 0.084475 0.039097
-0.153858 -0.084825 0.018156
-0.174947 0.176338 0.279559
-0.158494 -0.207400 0.080713
0.125694 -0.223077 -0.021968
-0.170109 0.226940 0.300531
-0.080333 0.179587 0.013965
-0.137268 0.064375 0.026728
-0.016561 -0.217044 0.021314
-0.165398 0.203003 -0.126329
-0.166779 -0.235560 0.326565
-0.189649 -0.057609 0.216143
0.006769 0.219588 0.042221
0.151012 -0.023469 0.047884
0.091539 -0.141662 0.052061
0.051739 -0.222192 0.009413
0.073626 0.211634 -0.167129
-0.161439 -0.208264 0.080339
-0.152828 -0.200316 0.012165
0.019185 -0.026907 0.047697
-0.061006 0.203800 0.045862
0.130595 0.078854 0.051318
-0.099658 0.151925 0.030388
-0.176119 -0.113707 0.321016
0.051610 0.225257 0.013664
0.091980 0.219835 -0.245505
-0.171582 -0.020130 0.236827
-0.071651 -0.000197 0.033371
-0.172742 0.178103 0.242784
-0.175408 0.025427 0.311472
0.167663 -0.053505 0.037097
0.122447 -0.216449 0.046401
-0.017626 0.105415 0.046046
-0.169252 0.146416 0.335892
-0.149243 -0.056224 0.018904
-0.129645 0.043511 0.013428
-0.100860 0.080056 0.003737
-0.177627 -0.015174 0.247098
-0.161845 -0.207713 -0.142178
-0.172340 0.224277 0.183727
0.048766 -0.088170 0.009472
0.044758 -0.015666 0.000357
-0.175487 -0.169705 0.218764
0.077063 -0.209066 -0.144953
-0.176526 -0.011602 0.311379
-0.177215 0.160997 0.241587
0.085919 -0.224117 -0.086097
-0.169713 -0.063529 0.360954
-0.152719 -0.216444 0.056629
0.193511 -0.085755 0.036369
0.157147 -0.138158 0.028351
0.125281 0.230241 0.034591
-0.150518 0.214346 0.041408
-0.002620 0.070548 0.046368
0.121327 0.046865 0.049882
-0.005627 -0.000044 0.044472
-0.183059 0.199716 0.310661
0.100078 -0.202734 0.006106
-0.153081 0.189266 -0.322394
-0.183494 -0.228617 0.213516
-0.175140 0.139095 0.316053
0.052853 0.201452 0.021895
0.141090 -0.026666 0.024553
-0.167692 0.185155 -0.289020
-0.019064 -0.161437 0.042363
0.026110 0.116407 0.050128
0.117885 0.248193 0.021973
0.104824 -0.220322 -0.078463
-0.172455 0.231338 0.337614
-0.149160 -0.184984 -0.003673
-0.145134 -0.195119 -0.313358
-0.140382 0.162480 0.027199
-0.176757 -0.029404 0.281143
0.023728 -0.183098 0.048181
-0.013432 0.231055 0.031179
-0.176521 -0.172420 0.224835
0.143153 -0.078345 0.023877
-0.167595 -0.136711 0.358214
-0.164328 0.182265 -0.172999
-0.140736 -0.107067 0.017541
-0.175600 -0.061929 0.326557
-0.174134 -0.200558 0.211632
-0.044119 0.107705 0.010070
0.071606 -0.081445 0.013705
-0.163710 -0.224682 0.150095
-0.148796 0.106585 0.020488
0.157273 -0.049451 0.049709
-0.156374 -0.201486 -0.017202
-0.175529 0.233929 0.222258
0.024278 -0.191543 0.046798
-0.176915 0.175877 0.355134
-0.146877 -0.175496 0.032693
-0.131994 -0.062348 0.018178
-0.165494 -0.196903 -0.154763
-0.149636 0.202071 -0.334497
-0.028730 0.038390 0.044999
-0.031484 -0.208294 0.046014
0.081894 -0.221894 -0.043654
0.088107 0.228763 -0.316537
-0.019866 0.192956 -0.000904
-0.170895 -0.189743 0.354380
-0.170915 -0.000032 0.240531
-0.102960 -0.026884 0.029133
-0.130697 -0.161784 -0.007264
-0.170545 0.208058 0.149624
-0.174824 -0.174993 0.312757
0.116932 0.225866 -0.003049
-0.019085 0.182206 0.041348
-0.176463 -0.125883 0.272207
-0.185578 0.120171 0.213492
0.001096 -0.198841 0.002031
-0.169427 0.211153 0.350356
-0.014007 -0.020634 0.001766
-0.178740 0.233942 0.243463
0.050429 -0.196291 0.040255
-0.146105 -0.193486 -0.299490
0.127227 -0.082576 0.024700
-0.172736 -0.200312 0.257445
-0.141334 -0.178274 0.000319
-0.031553 0.089946 0.045143
-0.183622 -0.126452 0.224917
-0.133103 -0.105506 0.030552
-0.117986 0.164821 0.035709
-0.177067 0.015380 0.248539
0.026799 0.192575 -0.003501
0.077915 -0.219271 -0.042237
-0.146697 0.175557 0.031975
0.101585 -0.058665 0.017470
-0.029976 -0.094224 0.004764
-0.167217 -0.209685 -0.120343
0.095895 0.221056 -0.255119
-0.137371 -0.037682 0.015048
0.088475 0.225042 -0.268134
-0.123621 0.136528 0.020437
-0.094329 0.214051 0.043606
-0.053435 0.148340 0.039380
0.050090 -0.223822 0.022279
-0.152019 -0.185827 -0.335268
-0.013530 0.076108 0.008244
0.084229 -0.223783 -0.086385
-0.146276 0.138598 0.024833
-0.177239 -0.238673 0.310511
-0.138060 0.069707 0.017793
0.093661 0.214844 -0.249009
-0.171140 -0.196021 0.190926
0.086676 0.206000 -0.192443
-0.172896 0.107683 0.345829
0.081366 0.226739 -0.301606
-0.182949 -0.113014 0.219431
-0.108348 -0.122559 0.033230
0.077874 0.219087 -0.042055
-0.178762 -0.150752 0.247663
-0.037896 -0.209781 0.044758
-0.154623 0.129296 0.018764
-0.156353 0.200968 -0.017687
0.090448 0.044253 0.012464
-0.155022 0.201477 -0.018527
0.087270 0.207842 -0.276914
-0.146854 -0.192630 -0.300034
-0.027639 0.214289 0.049208
-0.020598 0.134681 0.041406
-0.147198 0.175832 0.031910
-0.152673 0.197225 0.054873
-0.178174 -0.149484 0.331390
0.089423 -0.221824 -0.253178
-0.000540 0.133512 0.022227
-0.120968 0.000090 0.005622
-0.157059 0.207169 -0.223772
-0.166741 -0.210233 -0.120330
-0.080485 -0.222079 0.040400
0.160715 0.149447 0.034237
-0.174407 -0.056158 0.250790
0.166135 -0.181733 0.043608
-0.109503 -0.000117 -0.002953
0.093491 -0.214765 -0.248861
0.091657 -0.228620 -0.273263
-0.177760 0.070560 0.244782
-0.155104 0.222137 0.067408
0.098125 0.233782 0.017975
-0.172166 0.176436 0.329153
-0.141360 -0.154382 0.010861
-0.183352 -0.112339 0.220757
-0.175595 -0.216004 0.313625
-0.141489 -0.152393 0.005740
0.078356 -0.047511 0.008412
-0.142316 -0.063113 0.028852
-0.144448 0.196615 0.009498
-0.160121 -0.207768 0.080085
-0.170830 -0.218696 0.267738
-0.057801 -0.024659 0.003884
-0.143318 -0.018008 0.026055
-0.154360 -0.190696 -0.241725
0.101233 0.199650 0.010225
-0.184914 0.013702 0.259965
-0.173578 0.201607 0.340810
0.120375 -0.241029 0.016394
-0.170480 0.121168 0.358039
0.080160 0.227737 -0.297638
-0.131035 -0.161395 -0.007915
-0.179677 0.038883 0.210907
-0.064758 -0.069023 0.040882
0.135137 -0.050417 0.023450
-0.000182 0.139794 0.048715
0.167523 0.193070 0.033989
-0.167365 -0.175634 0.354555
0.154880 0.217118 0.019114
-0.176004 0.110554 0.232796
0.090052 0.227082 -0.268170
0.136025 0.012746 0.022250
0.169539 0.040628 0.030585
0.176555 -0.104233 0.034093
-0.177108 0.158625 0.209822
0.051742 -0.136909 0.050810
-0.175931 -0.042877 0.249835
-0.145690 -0.179376 -0.346293
-0.170049 -0.208071 0.148769
-0.158165 -0.180978 -0.247410
0.077065 0.208787 -0.144861
-0.050646 -0.188950 0.012548
-0.121225 -0.008437 0.030570
0.116478 -0.101832 0.019940
-0.161241 0.208364 0.080357
0.083828 0.228615 -0.280746
-0.175184 -0.213596 0.206033
-0.174983 0.114093 0.311924
-0.171683 -0.046710 0.363828
-0.177683 -0.141615 0.234533
-0.163319 -0.181319 -0.170972
-0.136475 0.074654 0.019394
-0.175652 -0.233740 0.250887
0.076744 0.209142 -0.145049
-0.172917 -0.103649 0.360514
-0.015234 0.160265 0.047134
-0.170335 0.217951 0.096194
-0.147037 -0.022491 0.022065
-0.168637 0.186411 -0.293563
-0.174798 -0.106305 0.253342
-0.165968 -0.178358 -0.172119
-0.087963 -0.123141 0.024515
-0.176232 0.113712 0.321061
-0.167897 0.193268 -0.261163
-0.143479 0.133356 0.027313
-0.167733 0.136740 0.358123
0.134994 0.050151 0.023446
-0.158864 0.206565 -0.203024
-0.144346 0.202693 -0.301502
0.086117 -0.227786 -0.139493
-0.162596 -0.207543 -0.326973
-0.169331 -0.146417 0.336032
0.072236 -0.225900 -0.160527
-0.128829 0.037202 0.031590
-0.096721 0.217742 0.032963
0.102181 0.119633 0.052184
-0.158098 0.202165 -0.185476
-0.182418 0.061818 0.235715
-0.176990 -0.203846 0.322551
-0.173629 0.086637 0.248043
-0.172906 0.121753 0.288083
-0.157866 0.221606 0.061291
-0.173968 0.196534 0.355021
-0.167262 0.192586 -0.257783
-0.133642 0.208916 0.000320
0.023687 0.183249 0.048175
-0.167809 -0.183510 -0.144355
0.194735 -0.021467 0.035090
-0.177496 -0.130049 0.303159
-0.154157 0.092024 0.022705
0.102058 -0.066627 0.050844
-0.177669 0.074695 0.310560
-0.174712 0.027284 0.364987
0.001342 0.133479 0.018147
-0.128696 -0.037200 0.031723
0.173792 0.000019 0.039813
-0.154508 -0.092032 0.022471
-0.174366 0.057247 0.336862
-0.169815 0.051780 0.263014
-0.175117 0.156748 0.271960
-0.181416 -0.063754 0.261306
0.015136 0.172926 0.023301
-0.052533 -0.137247 0.043450
0.091905 0.109058 0.021254
0.186341 0.000030 0.029731
-0.176393 0.113739 0.227177
0.181479 -0.048845 0.041633
-0.167226 -0.194655 -0.304264
-0.178897 0.150752 0.247715
-0.176443 -0.113952 0.227193
0.086441 0.213393 -0.295316
0.182345 0.087736 0.030589
-0.144103 -0.220644 0.024467
0.093928 0.214779 -0.249720
-0.135862 -0.031051 0.029407
-0.177643 -0.060560 0.313386
0.179005 0.148059 0.032943
-0.133657 0.085189 0.028039
-0.154172 0.202458 -0.028386
0.005527 0.221842 0.040438
-0.153736 -0.206457 -0.025107
-0.141237 -0.209105 0.044776
-0.123168 -0.165136 -0.005076
-0.181587 0.063763 0.261307
-0.158471 -0.223592 0.074539
0.088716 0.224637 -0.269104
0.154991 -0.216887 0.019141
-0.179390 -0.238386 0.330539
-0.133340 0.082242 0.010048
-0.176300 -0.163397 0.248255
0.077498 -0.209503 -0.143773
0.063944 0.104447 0.053808
-0.176751 0.011606 0.311150
-0.168456 0.179834 -0.138373
-0.149641 -0.202260 -0.334518
0.125825 -0.230568 0.034642
0.102800 0.201417 0.018595
-0.172516 0.021232 0.335747
0.110098 0.212313 -0.000432
0.083813 0.225016 -0.084942
-0.174754 -0.041274 0.307497
0.091893 -0.055205 0.049571
-0.176249 -0.069389 0.284269
-0.174147 -0.047251 0.268103
-0.159752 -0.222713 0.094990
0.126616 -0.236519 0.033876
0.091964 -0.219804 -0.245572
-0.146939 0.192194 -0.300080
-0.175748 0.047595 0.284893
0.164563 0.193071 0.040390
-0.146955 0.176189 0.030716
-0.133528 -0.085069 0.028347
-0.172933 0.086892 0.337668
-0.133475 -0.082337 0.010224
-0.173256 0.158778 0.346877
0.077322 -0.221044 -0.337036
-0.078061 0.100638 0.021661
-0.073837 0.130407 0.007757
0.193718 0.034268 0.029224
-0.178734 -0.234101 0.243463
-0.180761 -0.197040 0.281921
0.085588 0.230486 -0.226456
0.121747 -0.007611 0.020920
-0.104814 0.100842 0.035142
-0.178279 0.149589 0.331505
0.084797 -0.213302 -0.265586
-0.167337 -0.225314 0.091391
0.089641 0.226318 -0.267950
-0.165696 -0.191303 -0.356183
-0.177026 -0.031421 0.250439
-0.172395 -0.179910 0.208745
-0.169391 -0.211138 0.350417
0.067732 -0.227461 -0.290388
-0.138413 -0.069329 0.017862
-0.174043 0.112589 0.232259
-0.159964 0.208328 0.080286
-0.148705 -0.165536 0.012902
-0.154434 -0.184339 -0.249214
-0.152102 0.180324 -0.333169
-0.143547 0.222046 0.032766
-0.163773 0.181520 -0.197847
0.184777 0.078782 0.041803
-0.166620 -0.200602 0.129525
0.112387 0.169024 0.022515
-0.168864 0.208152 0.149005
-0.164878 -0.221681 0.129870
0.083006 -0.194660 0.015730
-0.179145 -0.132920 0.226339
0.101294 -0.218550 0.036417
-0.114157 0.191605 0.037981
0.087857 -0.216990 -0.254189
0.168816 -0.214571 0.017038
0.089294 -0.224227 -0.268951
-0.135686 0.000181 0.016536
-0.173062 0.110135 0.277886
-0.161243 -0.229178 0.123012
-0.152551 0.196448 0.055280
0.026115 -0.116402 0.050246
-0.175623 0.169741 0.218724
-0.169553 0.232743 0.129597
-0.163510 0.205330 -0.324452
-0.152838 0.200131 0.012048
0.120391 0.240963 0.015437
0.078492 -0.210839 -0.150117
-0.111082 0.162551 0.012148
0.090324 -0.220078 -0.246371
0.079191 -0.098251 0.053147
-0.166648 -0.193529 -0.264571
0.087986 0.229769 -0.316248
0.082585 -0.226893 -0.138659
-0.153695 0.206079 -0.024861
0.079063 0.227705 -0.103533
-0.148276 0.129137 0.013896
0.091505 -0.219977 -0.245715
-0.173485 -0.035031 0.321040
-0.146154 0.139111 0.024143
0.166551 0.180077 0.042326
-0.061298 -0.167894 0.043819
0.194735 0.021464 0.035433
0.116564 0.101835 0.019755
0.125854 0.223082 -0.021981
-0.175696 0.124208 0.272738
-0.159159 -0.218245 0.073451
-0.174554 -0.047104 0.338099
-0.177655 -0.074723 0.309963
-0.137613 -0.033601 0.022400
-0.171111 -0.222091 0.171592
-0.142212 -0.180731 -0.006634
-0.169347 0.223794 0.196173
-0.039895 -0.183373 0.043968
-0.158915 0.208338 0.079727
-0.171271 -0.202552 0.191694
-0.168890 0.178134 -0.337842
-0.129727 0.081339 0.033524
-0.018949 -0.058299 0.044882
-0.160818 0.208984 -0.148176
0.091076 0.229396 -0.272938
0.161346 -0.232179 0.033657
-0.158576 0.200393 -0.095985
-0.174999 -0.142685 0.285288
-0.145650 0.191993 -0.299318
-0.172915 -0.122342 0.287940
-0.100225 -0.040105 0.005715
-0.166981 -0.179109 -0.147971
-0.151014 -0.189620 -0.242679
-0.151726 -0.193857 0.007680
-0.152322 -0.197161 0.055887
-0.081057 0.205315 0.042974
-0.177091 -0.173923 0.260030
-0.159444 0.207415 -0.201154
-0.015128 0.038591 0.002726
-0.166732 0.200595 0.129540
-0.098221 0.190339 0.025017
-0.180232 0.235098 0.297710
-0.104946 -0.217711 0.038834
-0.081756 -0.198796 0.040609
-0.161164 0.207143 0.079358
0.050901 0.144856 0.051465
-0.158950 -0.206526 -0.202922
-0.016547 0.218911 0.021737
-0.175930 0.042866 0.249698
-0.108351 0.122567 0.033375
0.165095 -0.223251 0.033778
-0.104922 0.217931 0.038514
-0.176529 0.048009 0.354683
-0.158265 -0.208037 0.073807
-0.158257 0.199907 -0.095975
-0.084537 0.087767 0.012759
-0.125035 0.132213 0.026563
-0.137011 0.064663 0.026806
-0.147534 0.171335 0.025357
0.044386 0.190577 0.010803
0.113052 -0.113014 0.050620
-0.108474 -0.198654 -0.007924
0.077320 0.221041 -0.337549
-0.177340 -0.000359 0.316464
-0.094627 -0.183950 0.038068
0.080771 -0.222928 -0.181137
0.059703 0.090654 0.011043
-0.173415 0.053540 0.263400
-0.171235 0.195943 0.315741
-0.174946 0.157147 0.264419
-0.146855 0.194365 -0.300623
-0.040954 -0.209966 0.044576
-0.170087 -0.226852 0.300552
0.089407 0.222154 -0.253483
-0.102957 0.027432 0.029119
0.087687 0.228404 -0.316940
-0.150565 0.096664 0.012248
-0.189585 0.057445 0.216125
0.130915 0.228516 0.014801
-0.183703 -0.027661 0.211500
0.041677 0.095193 0.043204
-0.183219 -0.069934 0.211782
-0.178660 -0.000181 0.298146
-0.163739 0.180448 -0.172881
-0.142679 0.104757 0.017034
-0.160119 0.208233 0.080714
-0.176004 0.076999 0.350549
-0.019550 -0.182198 0.041362
-0.175610 0.215035 0.206653
-0.155339 -0.212016 -0.009557
-0.180915 0.197044 0.281920
0.025041 0.235399 0.045666
-0.176794 -0.078356 0.286633
-0.161208 0.209408 0.081002
0.077455 -0.238707 0.042415
-0.147023 0.192427 -0.299728
-0.170835 0.140458 0.218720
0.025273 -0.235155 0.045898
0.088113 -0.228454 -0.316115
-0.179503 -0.110606 0.232915
0.053357 0.224207 0.004403
-0.174790 -0.156863 0.272050
0.086134 0.223962 -0.086037
0.090428 0.208991 -0.298131
-0.181416 0.008527 0.239780
-0.177851 -0.120393 0.212617
-0.176296 -0.038503 0.298307
-0.167444 -0.192788 -0.257803
-0.147332 -0.175858 0.031862
-0.147324 0.072759 0.021971
-0.172033 -0.201647 0.215687
0.157147 0.138158 0.028469
-0.159113 0.224101 0.075398
0.166838 -0.190600 0.034674
-0.113051 0.142200 0.034892
-0.086377 0.079726 0.037589
-0.147306 0.178801 0.035751
-0.080513 -0.145773 0.038494
-0.156045 0.204812 -0.240082
0.084421 0.186641 0.021464
-0.099290 0.187186 0.037657
-0.141757 0.000050 0.020140
-0.175750 0.083874 0.288531
0.091646 0.228636 -0.272924
-0.158107 -0.221635 0.060523
-0.158452 -0.199898 -0.095818
0.081331 0.223717 -0.220624
-0.183989 0.038967 0.211647
-0.146384 -0.139809 0.026420
-0.162099 0.207532 0.112875
-0.157295 -0.191079 -0.240087
-0.140771 0.107093 0.017531
-0.179980 -0.167131 0.212398
-0.171689 0.238985 0.290139
-0.146783 0.134746 0.025521
-0.178469 -0.228623 0.199034
-0.164711 -0.204005 0.132320
-0.171816 -0.235068 0.259212
0.087028 0.204805 -0.277669
-0.170793 0.196079 0.190930
-0.163419 0.205608 -0.324689
0.149255 -0.013525 0.028540
0.090106 0.230694 -0.267464
-0.137685 0.033459 0.022596
-0.102402 -0.189381 0.032397
-0.161427 -0.202187 -0.230669
-0.131264 0.161354 -0.007908
0.089411 -0.226390 -0.267703
0.128868 0.154811 0.026001
-0.167596 -0.197009 -0.259736
-0.167006 -0.120902 0.357522
-0.185236 0.071962 0.206559
-0.176230 0.126162 0.272409
-0.151903 0.181735 -0.334697
0.088243 -0.227100 -0.317827
-0.154892 0.184866 -0.247224
-0.183724 0.027088 0.208287
-0.157571 -0.202594 -0.186578
-0.152469 -0.085416 0.017840
-0.148710 0.165530 0.012735
0.177236 0.103268 0.034155
-0.013029 -0.121231 0.046268
-0.172429 -0.231397 0.337452
0.077985 0.150756 0.024847
-0.177893 0.120533 0.212632
0.090809 0.221362 -0.248372
0.090775 0.220164 -0.246203
-0.145324 0.172871 0.041108
-0.168812 -0.178433 -0.338228
0.086892 0.225739 -0.066751
-0.172829 -0.172385 0.341090
-0.135366 -0.085045 0.033115
-0.171068 0.218737 0.267719
-0.161083 -0.209105 0.081332
-0.059896 -0.123147 0.040531
-0.024544 0.059902 0.004904
-0.178649 0.228654 0.199051
-0.057860 -0.154052 0.041553
-0.166876 0.198263 0.116529
-0.161535 -0.205833 -0.270709
0.120728 -0.243207 0.022974
-0.177880 -0.129707 0.309520
0.015082 -0.173330 0.023206
-0.172065 0.164545 0.355544
0.090264 -0.208977 -0.298352
0.073787 -0.211653 -0.167104
-0.158907 -0.206568 -0.203020
-0.164128 -0.182029 -0.171927
-0.187167 -0.106028 0.211626
-0.156022 0.196849 -0.046479
-0.157940 0.180447 -0.247808
-0.148030 -0.129616 0.013901
0.025900 -0.232916 0.045276
-0.179207 -0.117940 0.294742
0.104657 0.124382 0.023082
-0.133921 -0.007778 -0.016259
0.082869 0.223221 -0.044533
-0.142545 -0.051060 0.028277
-0.169934 -0.207371 0.148291
-0.163433 0.200570 0.156204
-0.141344 0.154029 0.011537
0.157311 0.043970 0.024067
-0.151384 0.189780 -0.242690
-0.012616 0.172669 0.019584
-0.173687 0.177088 0.210498
-0.173769 -0.174455 0.273802
-0.183547 0.027433 0.211919
-0.159454 0.201183 -0.042363
-0.145807 0.182609 -0.018216
-0.146059 -0.139155 0.024485
-0.092509 0.211990 0.012525
-0.101682 0.214777 0.050689
0.083452 0.187112 0.020896
-0.174598 -0.195944 0.187331
-0.113511 -0.204460 0.040691
-0.149548 -0.037119 0.019530
-0.167263 0.194693 -0.304091
0.135546 -0.133993 0.027631
-0.161870 0.219371 0.149615
-0.099901 -0.151838 0.030064
-0.173158 0.101445 0.350625
0.170263 0.137961 0.032875
-0.157044 0.206972 -0.223987
-0.165712 0.196817 -0.154763
-0.039470 0.057534 0.045146
0.181835 -0.129516 0.038845
0.092172 0.228780 -0.272964
-0.174921 0.100583 0.213658
-0.168268 0.183740 -0.143139
-0.140655 -0.212138 -0.024371
-0.044765 0.226975 0.036080
-0.175148 -0.100676 0.213606
0.083358 0.210656 -0.289803
-0.167428 0.184216 -0.142277
-0.190329 0.108297 0.218507
-0.177698 0.214015 0.228748
0.080668 0.225027 -0.181477
-0.172330 -0.194203 0.189240
0.079210 0.206189 -0.200102
0.073726 0.236174 -0.164065
0.000322 -0.229110 0.047370
-0.182114 0.043790 0.214631
-0.177020 -0.159202 0.209964
-0.173389 0.226323 0.221720
0.068554 -0.216040 -0.120758
-0.165910 0.187049 -0.144916
0.181624 0.048849 0.041642
-0.172074 -0.164886 0.355849
0.090665 0.229168 -0.268665
-0.153670 0.191967 0.043827
0.033594 -0.220786 0.009168
-0.050378 -0.079984 0.021029
-0.176309 -0.018831 0.363269
-0.174811 -0.145078 0.356711
-0.174800 0.170390 0.303943
-0.170115 0.208031 0.148472
-0.154571 0.190926 -0.241778
-0.122590 -0.110924 0.016821
-0.174994 -0.156957 0.264406
0.090907 -0.196533 0.023029
0.132136 0.035018 0.023504
-0.172731 -0.021262 0.335917
0.095792 -0.220674 -0.254162
-0.171977 -0.036302 0.207254
-0.143681 0.018044 0.026190
-0.172683 0.103442 0.360482
-0.157876 -0.208777 0.076989
-0.110651 -0.159018 0.027176
0.089877 0.208482 -0.297683
0.090361 0.214012 -0.230719
-0.159387 0.201948 -0.096024
0.090512 0.229860 -0.268716
-0.167579 0.192222 -0.261390
-0.169292 0.183727 -0.260077
-0.117244 0.046557 0.032507
-0.159747 0.203333 -0.232643
-0.155048 0.190972 -0.241299
-0.132926 0.071868 0.014829
-0.166774 -0.239125 0.291514
-0.073199 -0.178058 0.041653
