ply
format ascii 1.0
element vertex 1667
property float x
property float y
property float z
end_header
-0.122383 -0.101500 0.070002
0.224174 -0.114801 -0.063021
-0.156641 0.004613 0.151810
-0.019023 0.139342 -0.064847
0.112551 -0.159382 -0.007762
-0.089804 -0.036553 0.005656
-0.076309 0.097072 -0.225056
-0.126903 -0.045085 -0.008501
0.188201 0.155549 -0.125172
-0.079729 -0.128585 0.011005
-0.081183 0.109917 0.196231
-0.185486 -0.058162 0.319736
-0.094679 -0.037074 0.128687
-0.114006 -0.066983 0.364571
-0.049516 0.107132 -0.112591
0.137465 0.052000 -0.010778
-0.202467 0.027034 0.349792
0.227493 -0.054728 -0.027723
-0.099319 0.061725 0.333865
0.166676 -0.176317 -0.035166
-0.072717 -0.132697 -0.009759
-0.113056 -0.028809 -0.083633
-0.012008 -0.140662 -0.011022
-0.078020 -0.134932 -0.245757
0.124255 0.101646 -0.058910
0.154500 0.160879 -0.020812
-0.126994 -0.002187 0.000265
-0.014908 -0.062594 -0.007941
-0.186211 0.068303 0.383900
0.202911 -0.161555 -0.222184
-0.130571 -0.043168 0.129092
-0.080188 0.130385 -0.127743
-0.166665 -0.109537 0.384884
-0.092738 0.125068 -0.075339
-0.119605 -0.059866 0.375395
0.236550 -0.169443 -0.021207
0.119925 0.034934 -0.060977
0.099825 0.089324 -0.059109
0.193159 -0.145017 -0.211995
-0.075248 0.105670 -0.293559
0.230163 0.154436 -0.068551
0.225463 0.014285 -0.017802
-0.151983 0.034474 0.212048
0.053068 -0.158052 -0.026784
0.202027 -0.167206 -0.386083
0.196027 -0.036755 -0.011483
-0.089872 0.069820 0.231858
-0.174243 0.108300 0.357909
0.212732 0.173688 -0.088091
0.190750 0.156239 -0.109174
0.220033 0.169219 -0.300442
-0.130356 -0.023130 0.007876
0.034394 -0.131788 -0.060893
-0.104507 0.034878 0.072856
-0.097937 0.039251 0.133192
0.192075 -0.157615 -0.133381
-0.034491 -0.130325 -0.008149
-0.123780 0.105920 0.219909
0.071858 0.129605 -0.006948
-0.144954 0.012786 0.122414
-0.149943 -0.003058 0.127280
0.038512 -0.159544 -0.058041
-0.058041 0.003335 -0.022663
-0.145524 0.024131 0.126995
0.217294 -0.164123 -0.322297
-0.028800 0.028387 -0.012848
0.215867 0.115183 -0.015005
-0.136577 -0.125970 0.338632
-0.164723 0.070188 0.286559
0.209581 0.045995 -0.063833
-0.135480 0.080555 0.203788
0.212349 -0.160368 -0.349325
-0.146108 0.089220 0.249369
-0.150051 -0.022825 0.172895
0.206481 0.154188 -0.282112
0.202737 -0.167143 -0.394299
-0.073788 0.131174 -0.027466
0.029274 0.026786 -0.059093
0.103502 0.094410 -0.010205
0.228091 0.022905 -0.018675
-0.106422 0.112946 0.090319
-0.101325 -0.058073 0.258455
-0.143504 0.064843 0.137071
0.225514 0.168152 -0.109888
0.218234 -0.000012 -0.012393
0.128939 -0.147787 -0.001268
0.037806 0.080185 -0.007819
-0.075218 -0.022287 -0.085624
0.228136 0.176813 -0.075329
-0.084311 0.123010 -0.238171
-0.059761 -0.116642 -0.230403
0.105609 0.138593 -0.006388
-0.044036 -0.110387 -0.170368
-0.100133 0.128472 -0.374542
0.230305 -0.183049 -0.048859
-0.091568 0.022778 0.191964
-0.086879 -0.054218 0.135255
-0.087142 0.072405 0.233627
-0.090652 -0.041719 0.189819
-0.124139 0.098521 0.377160
-0.074038 0.019498 -0.022798
0.231433 -0.031474 -0.034897
-0.126574 0.048257 -0.030117
0.229061 -0.044732 -0.061810
-0.120381 -0.104056 0.094647
-0.145847 -0.058706 0.147005
0.107012 -0.039737 -0.060792
0.180731 0.101754 -0.063711
-0.091918 -0.045902 0.041715
-0.092163 0.101866 -0.098918
0.186775 0.167703 -0.037592
-0.177444 -0.068918 0.387062
-0.094654 0.124653 -0.065275
-0.015012 -0.094665 -0.071068
-0.116309 -0.071806 -0.075591
0.078524 0.160890 -0.025684
0.016171 -0.012487 -0.063229
0.199573 0.169387 -0.106395
-0.089425 0.092642 0.274036
-0.091308 -0.110909 -0.091899
-0.185229 0.042296 0.386414
-0.130332 -0.133927 0.361806
0.218485 -0.079403 -0.068291
-0.137358 0.063305 0.124467
0.063775 -0.081412 -0.058533
-0.071008 -0.136463 -0.064568
0.116317 0.052014 -0.008592
-0.176751 0.005270 0.370990
-0.074653 0.107745 0.153208
0.225171 -0.089321 -0.012632
-0.090272 -0.009473 0.150189
-0.023775 -0.067091 -0.070978
0.196292 0.123257 -0.064925
0.074429 -0.059744 -0.060091
-0.063095 -0.112636 0.057353
0.189241 -0.032889 -0.068496
-0.090422 -0.120308 0.185575
0.230922 0.072998 -0.035936
-0.186971 0.076348 0.363695
-0.087433 -0.115572 0.302853
-0.122953 -0.085025 0.027429
0.118926 0.056893 -0.062599
-0.185183 0.050028 0.316689
-0.143715 0.067910 0.233130
0.117268 -0.018001 -0.008436
0.147825 0.143440 -0.057805
-0.124826 0.112264 0.380127
-0.052940 0.143346 -0.064014
-0.120165 -0.099023 0.013805
0.218101 -0.160550 -0.268606
0.228616 0.168456 -0.024108
0.220943 -0.158552 -0.382937
0.203940 -0.159962 -0.246046
-0.020440 0.001916 -0.009786
-0.034856 -0.030908 -0.011955
0.093226 -0.126510 -0.057744
0.232588 0.087502 -0.058022
-0.153806 0.129144 0.345024
0.132163 -0.163362 -0.013358
-0.106390 -0.121556 -0.021696
-0.100101 0.085593 0.336336
-0.074290 0.116047 0.133117
-0.110300 -0.112211 0.360510
-0.088233 0.117040 0.127938
-0.022061 -0.153473 -0.047336
0.230028 0.004527 -0.020627
-0.100040 0.123377 -0.115520
-0.123180 -0.035274 -0.077795
-0.127100 0.045593 0.358144
-0.110366 -0.086107 0.358461
0.085626 -0.009651 -0.059725
-0.052687 0.140255 -0.030435
-0.156096 0.075607 0.271007
0.219903 0.167761 -0.365300
-0.011382 0.145653 -0.024121
0.211439 -0.021416 -0.066469
-0.099274 -0.090004 0.304992
-0.134806 0.107723 0.255906
0.209432 -0.147932 -0.294138
-0.020386 0.118371 -0.011412
0.223956 -0.136401 -0.063053
-0.086194 0.076275 0.180067
0.211475 0.176120 -0.061562
-0.158400 0.019241 0.197278
-0.139408 -0.094825 0.241132
-0.083520 -0.107559 -0.107574
0.188578 -0.008363 -0.071776
-0.096711 -0.061697 0.295479
-0.095952 0.114305 0.103462
-0.109423 -0.042188 0.343887
0.062309 0.153295 -0.055367
0.193375 -0.135102 -0.008974
-0.093582 -0.114228 0.316186
-0.122358 -0.062312 -0.038294
0.013863 -0.159360 -0.065109
0.021713 -0.096656 -0.064741
-0.196417 0.063740 0.354234
0.138485 0.019235 -0.010329
-0.055570 0.106660 -0.148990
-0.175194 0.037641 0.276253
0.122658 -0.094666 -0.061155
-0.075722 -0.114380 -0.244529
0.206111 0.164939 -0.263764
0.226848 0.085558 -0.021202
-0.080145 0.128539 -0.338552
-0.187904 0.043037 0.307025
-0.107084 -0.043896 0.319249
-0.042099 0.144776 -0.050427
0.194566 -0.163465 -0.002698
-0.067719 -0.095611 0.066164
-0.082373 0.072074 0.099219
-0.116574 0.058397 -0.002337
0.075787 -0.017208 -0.008822
-0.162874 0.002402 0.296919
-0.147747 0.056644 0.114491
-0.133290 -0.021865 0.122002
-0.103684 0.110192 -0.092972
-0.097145 0.037942 0.152042
-0.097015 0.042035 0.202240
-0.007342 -0.036310 -0.007758
0.055612 0.055822 -0.058569
0.232592 0.138044 -0.025920
-0.078204 0.055963 0.044940
-0.094063 0.106981 -0.129684
-0.145690 -0.070588 0.197993
0.219740 0.017918 -0.063755
-0.185719 -0.058218 0.330137
-0.120511 -0.120637 0.290507
0.201134 -0.161256 -0.101231
0.117466 0.163937 -0.018025
-0.103630 0.120569 -0.284179
-0.067308 -0.137886 -0.289283
0.001785 0.147779 -0.062523
-0.096594 0.110666 0.300462
0.049252 0.008917 -0.058839
-0.114755 -0.112616 0.116485
0.144271 -0.151857 -0.061757
-0.005822 -0.004171 -0.062107
0.207544 -0.147140 -0.348734
-0.126251 0.058321 0.364860
-0.069437 -0.082899 0.038635
0.124605 -0.001729 -0.061242
-0.199099 0.020104 0.345236
-0.070891 -0.118257 -0.262417
0.231562 -0.119653 -0.051982
0.148469 0.083398 -0.061792
-0.101025 -0.118476 0.069140
-0.079994 0.116675 0.157020
-0.133369 -0.050520 0.014616
0.162082 0.045591 -0.011838
-0.116847 0.083695 0.374117
-0.186827 0.032185 0.311025
-0.066637 -0.099125 -0.146474
-0.074820 -0.009521 -0.069348
0.230145 0.135817 -0.070301
-0.045654 0.050338 -0.057786
-0.081185 0.057848 -0.008296
-0.042639 0.139110 -0.062200
-0.058069 0.070711 -0.016314
-0.149630 0.052585 0.214067
-0.029194 -0.108706 -0.067670
-0.094424 -0.105730 0.281446
-0.089606 0.075430 0.309675
-0.118140 0.027703 0.288718
-0.092088 0.061419 0.282016
0.132025 0.106385 -0.058619
0.192996 -0.178239 -0.031813
-0.065947 -0.059524 -0.076295
0.202669 -0.084856 -0.012576
-0.209893 -0.010507 0.357749
-0.012471 0.101927 -0.063053
-0.091955 -0.084473 0.263620
0.217122 -0.086765 -0.069219
-0.030109 -0.121963 -0.149973
-0.106032 -0.076325 0.342502
-0.103375 -0.121746 0.353250
-0.111319 0.119591 0.302252
0.050578 0.140341 -0.010106
-0.094517 0.114833 -0.156032
0.194107 0.151273 -0.142625
-0.144548 -0.071640 0.172231
0.221967 0.168536 -0.015622
-0.175997 -0.099541 0.353877
-0.201342 0.047621 0.370381
-0.097651 -0.134235 -0.333423
-0.132560 0.063714 0.380141
-0.110324 0.013604 0.300201
-0.056441 0.115298 -0.130305
-0.188010 0.020006 0.374445
-0.003706 0.146524 -0.019155
-0.128877 0.093289 0.115312
0.193129 0.166414 -0.012175
-0.150227 -0.072373 0.264080
-0.073909 -0.133365 -0.322589
0.209753 -0.115807 -0.064149
-0.096016 0.117393 0.012825
-0.137638 -0.125308 0.390470
-0.093217 0.055395 0.218773
0.222799 -0.002327 -0.019517
-0.099793 -0.121418 -0.396044
-0.096675 -0.062185 0.213359
0.000777 -0.143482 -0.009424
-0.129761 -0.051006 -0.052586
-0.130647 0.062120 0.379084
-0.125778 0.052412 -0.045180
0.219817 0.137324 -0.012566
0.134070 -0.168775 -0.026564
-0.110174 0.117614 0.368902
-0.124945 0.036231 0.004340
-0.110760 0.023326 0.329368
-0.117723 -0.117605 0.377547
-0.083236 -0.100687 0.211980
0.076295 -0.031367 -0.005422
-0.190329 -0.105082 0.368234
-0.109605 0.033872 0.116855
-0.193663 0.071884 0.368654
0.193457 0.158459 -0.214728
-0.057241 -0.103913 0.028849
0.005483 -0.113975 -0.007129
-0.104490 0.050388 0.260015
-0.103227 -0.115650 0.080562
0.119366 0.143666 -0.007717
0.197917 -0.071912 -0.070952
0.203378 0.151851 -0.295930
0.112780 -0.096929 -0.006318
0.049993 -0.117070 -0.057643
-0.155129 0.071660 0.244333
0.193342 0.149866 -0.091320
-0.116555 0.007088 0.321731
-0.090089 0.120973 -0.234759
0.003670 0.118281 -0.063585
0.136429 0.007125 -0.061025
-0.083470 -0.072521 0.136734
-0.068586 0.106476 -0.159397
-0.099451 0.121222 -0.180359
0.165000 0.168715 -0.032443
-0.130398 0.117388 0.276143
-0.080455 0.004077 0.006121
-0.080760 -0.051043 0.185116
0.217286 -0.113925 -0.017882
-0.080677 -0.120171 0.198487
0.207023 -0.166366 -0.289603
-0.041160 0.110939 -0.013278
-0.078686 0.068991 0.038308
-0.097973 0.106130 0.334459
0.231987 0.024406 -0.033658
0.219408 -0.147511 -0.014225
-0.140535 -0.097527 0.372106
-0.157870 -0.089893 0.289831
-0.090826 0.121237 -0.171020
-0.125483 -0.074165 -0.030314
-0.092251 0.079865 0.239735
-0.066435 0.107135 0.049142
-0.120056 -0.091560 0.120857
-0.036802 -0.147019 -0.028152
-0.109879 -0.129559 0.326655
-0.165531 -0.074795 0.291234
0.167587 0.151998 -0.058328
0.221928 0.161461 -0.263019
0.018111 0.047230 -0.008271
-0.093226 -0.089463 0.221837
0.230929 0.167970 -0.204352
-0.136304 -0.094277 0.190456
-0.119397 0.075852 0.367302
-0.094026 -0.007018 0.005532
-0.176885 0.115716 0.384621
0.208849 -0.160847 -0.362604
0.024426 -0.102943 -0.059648
-0.139278 -0.061836 0.370028
-0.094097 0.045546 0.088588
-0.036343 -0.149892 -0.043849
-0.105314 -0.023697 0.302382
-0.084476 0.009429 -0.002759
0.214971 -0.032795 -0.015485
-0.185427 0.063910 0.330519
-0.054007 -0.119915 -0.209587
0.190783 0.133395 -0.015788
-0.067875 -0.129962 0.067907
0.152911 0.152591 -0.011196
0.082090 -0.161778 -0.058784
-0.092850 -0.102412 0.310282
-0.090403 -0.102545 0.327455
-0.065082 0.122583 -0.166014
0.217537 0.141246 -0.096994
-0.124282 0.095329 0.061615
0.208118 0.148068 -0.142041
0.039772 0.152439 -0.018203
-0.078330 -0.104040 -0.148817
-0.025221 0.150798 -0.057507
0.211882 -0.153221 -0.165032
0.080666 -0.055648 -0.006240
0.184019 -0.142399 -0.072020
-0.086711 -0.120189 0.141938
-0.086112 0.047252 0.021242
-0.041474 -0.111103 -0.159243
-0.058329 -0.144672 -0.042732
0.201354 -0.007860 -0.014608
-0.106576 0.102670 0.351735
0.149081 -0.035850 -0.010135
0.148772 -0.072292 -0.008120
0.221093 -0.179089 -0.015176
-0.109725 -0.030117 0.323970
-0.155984 -0.001396 0.302344
-0.209359 -0.034180 0.386046
0.205040 -0.166850 -0.332491
-0.186330 0.080958 0.345635
-0.057647 -0.125384 -0.000480
-0.105228 0.115588 -0.353177
-0.036588 0.116763 -0.010564
0.126669 -0.029834 -0.061095
-0.079957 -0.111825 -0.211289
0.223274 -0.175820 -0.191915
-0.129117 0.019154 -0.057391
-0.145857 -0.132778 0.345162
0.051659 -0.023958 -0.058634
-0.170469 0.075080 0.392243
-0.064855 0.103556 -0.237921
0.040379 -0.025700 -0.005324
-0.208708 -0.064293 0.383842
-0.122791 -0.023453 0.350571
-0.137591 0.083005 0.166801
-0.087009 -0.110404 -0.172242
-0.056103 -0.095662 -0.107930
-0.102498 0.106739 -0.228338
-0.107068 -0.020846 0.210086
0.162284 -0.135942 -0.062944
-0.117661 0.071470 0.013432
0.230292 0.001420 -0.029551
0.026565 -0.150630 -0.063232
-0.187592 -0.035312 0.317014
-0.061098 0.099122 0.064044
-0.096537 0.117042 -0.396379
-0.078775 0.079045 0.112607
0.019634 -0.071151 -0.004482
-0.158727 -0.110044 0.401413
0.081577 0.038507 -0.007135
-0.068250 0.112189 0.148194
-0.174082 -0.081338 0.337905
0.208728 -0.063641 -0.068921
0.159667 0.170279 -0.026861
-0.092816 0.110318 -0.384465
-0.186831 0.105450 0.366758
0.190416 0.051918 -0.065338
-0.086713 -0.031789 0.010782
-0.081154 -0.122636 0.034146
-0.134834 -0.101769 0.256851
-0.118506 0.025675 -0.083272
0.202134 0.161780 -0.347160
0.194472 -0.017333 -0.067379
-0.096502 -0.050103 0.221297
-0.103913 0.123417 -0.262450
0.108637 0.164385 -0.031379
-0.097938 -0.024257 0.124693
-0.130330 0.054904 0.032219
-0.193928 0.037396 0.358853
-0.095768 0.103326 -0.007221
-0.095282 -0.138062 -0.387855
-0.084836 -0.125766 -0.219711
-0.107352 -0.096194 0.370695
0.051860 -0.152379 -0.057418
-0.120409 -0.115680 0.237046
-0.203463 -0.061577 0.367849
-0.085580 -0.114318 0.285267
-0.073983 -0.136231 -0.300014
-0.126064 0.068334 0.031719
-0.087750 0.001550 0.182103
-0.135198 0.002513 0.360638
-0.092548 0.055492 0.112826
-0.091878 -0.032106 0.020567
-0.126686 0.035339 0.003299
0.205764 -0.154734 -0.345179
-0.118455 0.023994 -0.071957
-0.064918 -0.128515 -0.153106
-0.125377 -0.018498 -0.028370
0.238359 0.008620 -0.043974
0.143308 -0.013427 -0.060863
-0.147380 -0.133027 0.376676
-0.167383 0.049228 0.376375
0.052939 -0.162082 -0.058006
-0.102034 0.006914 0.216832
-0.084256 0.049281 0.020469
-0.126222 -0.017426 -0.060375
-0.098371 -0.028853 0.216005
-0.152933 -0.006083 0.198204
-0.080160 -0.097563 0.193766
0.206031 0.103483 -0.063389
-0.090610 0.073823 0.260512
0.136609 -0.125632 -0.061555
0.085726 0.156021 -0.053991
-0.090117 -0.114901 -0.228395
-0.121356 -0.111421 0.168167
-0.074307 -0.072309 -0.004247
0.054940 -0.129753 -0.002173
0.176535 0.070704 -0.066283
0.064685 0.075672 -0.007868
-0.129383 0.013439 -0.038964
-0.091722 0.047572 0.215949
-0.142524 0.056443 0.151921
-0.065954 -0.131079 0.031221
0.209037 -0.168119 -0.310495
-0.084634 0.049002 0.065305
-0.053720 -0.022082 -0.066891
0.193636 -0.073968 -0.012560
-0.134253 0.080126 0.183087
-0.189306 0.051059 0.342988
-0.069873 -0.132939 -0.248816
-0.119278 -0.017514 0.337012
0.171514 0.000520 -0.063042
-0.095094 0.084464 0.295983
-0.119608 -0.002019 -0.065015
-0.107674 -0.119173 0.144306
-0.103121 0.113164 0.032419
-0.041912 0.074132 -0.059231
-0.086152 -0.007804 -0.023705
0.225465 -0.166914 -0.251846
0.222950 -0.177502 -0.325267
0.180777 -0.115762 -0.009115
-0.097639 0.118505 -0.079174
-0.028750 -0.158641 -0.031643
-0.166980 0.119825 0.330777
0.223724 0.163764 -0.326907
-0.030647 0.008071 -0.012442
-0.096855 -0.017556 0.131052
-0.058030 -0.141580 -0.063643
-0.135505 -0.123948 0.318318
0.034421 0.143633 -0.057322
-0.137991 0.135138 0.343704
0.188951 -0.168492 -0.062525
0.145100 -0.141081 -0.002156
0.017580 -0.070113 -0.053967
0.202283 -0.166737 -0.186177
0.178276 0.139623 -0.054156
0.209926 -0.058278 -0.012807
0.177708 0.017478 -0.013042
0.003871 -0.160077 -0.059279
-0.071379 0.107774 0.087939
-0.066642 -0.123378 -0.283638
-0.146421 0.059337 0.223356
0.060517 -0.073740 -0.005271
-0.058812 0.039382 -0.059711
-0.125222 -0.067706 0.096697
-0.164349 -0.070946 0.273619
-0.161762 0.119438 0.377091
-0.046802 0.135108 -0.016756
0.003700 0.063447 -0.061160
-0.083999 0.131015 -0.278793
-0.084917 0.119340 -0.237122
-0.079256 0.109324 -0.311007
-0.112200 0.108705 0.111138
-0.090123 -0.068321 0.131912
-0.207500 -0.044217 0.371490
0.027893 -0.038771 -0.060232
0.068925 0.116937 -0.007339
0.194739 0.151568 -0.246164
0.229462 0.160044 -0.026908
-0.128721 -0.013811 -0.066156
-0.105412 -0.100777 0.347527
0.192340 0.142633 -0.010621
-0.105969 0.112533 -0.004978
0.230936 0.032724 -0.058670
-0.090591 0.014746 0.044239
-0.159131 0.128692 0.368093
-0.066402 0.101819 -0.189940
-0.093806 -0.068933 0.120742
-0.125926 0.126486 0.368585
0.206574 -0.179622 -0.040701
-0.129459 0.016408 -0.019572
-0.158009 0.067967 0.244404
-0.118545 0.121773 0.359764
-0.086646 0.128892 -0.399721
0.187236 -0.104212 -0.069433
-0.101587 0.088022 0.346111
-0.078609 0.063174 0.092573
-0.063978 0.120582 0.034362
-0.144095 0.125567 0.310840
0.159793 -0.162671 -0.003326
0.195657 -0.109376 -0.012763
0.223769 0.103301 -0.064703
0.221549 0.151459 -0.272625
0.001015 -0.156353 -0.035257
-0.079144 -0.065037 0.054689
-0.211548 -0.001740 0.365970
0.221812 -0.153535 -0.171738
0.203632 -0.165041 -0.404672
-0.131770 -0.096583 0.176518
-0.092339 -0.084936 0.246135
-0.088986 -0.138476 -0.376716
-0.092420 -0.123866 0.296112
-0.154551 -0.082005 0.260100
-0.109656 0.123084 0.262056
-0.108677 0.116016 0.350218
-0.177953 -0.041129 0.302265
0.168850 -0.074390 -0.066156
0.226749 0.040374 -0.020351
-0.096086 0.012687 0.208964
-0.090386 -0.126019 -0.243560
-0.187071 0.005274 0.297943
-0.076784 -0.053342 0.007085
-0.087196 0.106852 -0.354785
-0.068056 0.065510 -0.061050
0.184264 -0.123130 -0.062410
-0.071046 0.107356 -0.195930
0.139073 -0.169438 -0.054809
0.033954 0.072364 -0.059697
-0.074667 0.137793 -0.050061
-0.098652 -0.129023 -0.335741
0.200754 0.169440 -0.165688
0.228147 -0.092301 -0.030152
-0.088433 -0.124460 -0.045355
-0.091755 0.118117 -0.011045
-0.078633 0.124465 0.013875
-0.148277 0.104595 0.285602
0.194250 -0.023123 -0.016041
-0.126570 -0.030728 0.006250
-0.148586 -0.034718 0.157014
-0.065617 0.044315 -0.021046
0.178050 0.146933 -0.069230
0.056848 0.107362 -0.007257
-0.130888 -0.012789 -0.040464
0.136532 0.156161 -0.056044
-0.107416 -0.089826 -0.075990
0.228084 -0.042776 -0.029504
0.056550 0.018664 -0.006427
0.030999 -0.047177 -0.058911
-0.107998 -0.054538 0.349147
-0.131958 0.070118 0.060641
0.159039 0.165422 -0.056357
-0.051159 -0.124805 -0.192647
-0.141191 -0.077784 0.219588
-0.029408 -0.013052 -0.014709
-0.087095 0.063937 0.169877
-0.138677 -0.075936 0.145248
-0.093444 -0.090799 -0.094572
-0.113353 -0.106981 -0.054598
-0.074643 -0.055902 -0.074011
-0.172027 0.088873 0.325200
0.046985 -0.069935 -0.054763
-0.141629 0.103446 0.387128
-0.090605 0.064113 0.208126
-0.119248 0.106558 0.152977
0.184863 -0.171127 -0.008777
0.215285 -0.101124 -0.015105
0.207354 0.166430 -0.389010
-0.166651 0.054382 0.264220
0.163787 -0.096497 -0.009459
-0.085563 0.114937 0.219569
-0.140828 -0.105179 0.283589
-0.061392 -0.121710 0.041657
-0.092339 -0.007437 0.163713
0.195287 -0.174746 -0.041858
0.204131 0.036196 -0.013355
0.161466 -0.115092 -0.064958
-0.135158 -0.018752 0.371377
-0.025480 -0.069531 -0.010070
0.217157 0.169760 -0.354679
-0.083250 0.039259 -0.017706
-0.169467 -0.056779 0.281543
-0.202038 -0.076418 0.378257
-0.005916 0.079634 -0.009004
-0.150953 0.032375 0.168651
0.121134 0.161565 -0.015147
0.112981 -0.145208 -0.003797
-0.095573 -0.124687 -0.359034
-0.156753 -0.000526 0.195360
-0.116493 -0.078074 -0.025379
-0.192123 0.087352 0.368194
-0.052321 -0.127213 -0.177977
0.065842 0.157010 -0.054333
0.049661 -0.058054 -0.063202
-0.112012 -0.105222 0.044492
-0.069006 0.109931 -0.218597
-0.101584 0.059640 0.242167
-0.094111 -0.120252 0.222499
-0.094138 0.112093 0.282895
-0.105321 0.128388 -0.348864
-0.094878 -0.131846 -0.271045
-0.190972 -0.048516 0.328291
-0.091303 0.115433 0.051797
0.221591 0.160397 -0.257105
-0.077301 0.114470 0.084431
0.220369 0.159298 -0.342809
0.206456 -0.149529 -0.206301
0.040148 0.063899 -0.007927
0.138595 0.113630 -0.009755
-0.086539 0.092181 0.256146
-0.115399 -0.110663 0.213465
-0.117893 0.018910 0.341042
-0.112960 -0.106747 0.085101
0.087318 0.157261 -0.035630
0.155697 -0.131757 -0.005691
-0.093167 0.041007 0.088772
-0.157808 0.008304 0.209323
0.117499 0.014911 -0.061596
-0.090589 0.003097 0.149488
0.063423 0.091275 -0.058657
-0.197481 0.066731 0.343891
-0.142018 0.122867 0.298732
0.059846 -0.044271 -0.006192
-0.119356 0.115296 0.250192
0.218740 0.171488 -0.178359
0.204212 -0.143829 -0.011946
-0.167896 0.119586 0.368870
-0.055498 0.113955 -0.146323
-0.093413 -0.119400 0.032899
-0.037886 0.026756 -0.061753
0.152727 0.013029 -0.063622
-0.164694 0.030689 0.263548
0.154924 0.069686 -0.012605
-0.096554 -0.115775 0.328480
-0.207220 0.013487 0.354035
-0.099464 0.113013 -0.138447
-0.090780 -0.125988 0.156250
0.219940 0.172238 -0.051470
-0.095333 0.007196 0.126018
-0.096331 0.047691 0.192612
-0.114743 -0.003858 0.302954
-0.107308 0.123939 0.335847
-0.151989 0.019450 0.364646
0.033637 -0.157662 -0.032428
-0.114419 0.041019 0.282822
0.113838 0.018990 -0.009340
0.104009 -0.146440 -0.060620
-0.171432 0.107227 0.353637
0.221711 0.074226 -0.015094
-0.157250 -0.018946 0.183356
0.023968 -0.157088 -0.054484
0.219368 -0.009970 -0.065654
-0.097832 -0.119611 0.049308
-0.086422 0.109174 0.237478
-0.068877 -0.096315 0.020474
-0.116618 0.116284 0.235434
0.066226 -0.144185 -0.060420
-0.103233 -0.049724 -0.078908
-0.065789 0.122257 -0.001602
-0.083343 0.136387 -0.096416
-0.069410 0.105923 -0.183824
-0.095368 -0.017450 0.199886
-0.163247 0.022498 0.360547
0.228054 -0.168838 -0.017683
0.079266 -0.156540 -0.009765
-0.145104 0.025555 0.092367
-0.123787 0.077457 -0.013993
-0.209283 0.022477 0.366196
0.191612 -0.149793 -0.187887
-0.178071 -0.059041 0.303736
-0.129454 -0.068088 0.018970
-0.128729 -0.053625 0.000595
-0.098358 -0.123470 0.272521
-0.130034 -0.063349 0.127483
0.166969 0.161079 -0.054189
0.216744 0.152625 -0.392868
0.234041 0.159389 -0.047165
0.218811 -0.077061 -0.017950
0.221708 0.130936 -0.072810
-0.091153 -0.046908 0.025196
0.203362 0.127293 -0.013692
-0.176907 -0.075421 0.332762
-0.124032 -0.081341 0.064258
0.232277 0.128514 -0.024038
-0.084297 -0.100537 0.259737
-0.102647 0.118531 0.209669
0.064892 -0.164362 -0.049843
0.030509 0.149704 -0.058439
0.113408 -0.015270 -0.061856
0.225214 0.096863 -0.064545
-0.129326 -0.017035 0.358619
0.023668 0.117565 -0.059653
-0.080656 -0.116968 -0.270504
0.216144 -0.156073 -0.370458
0.178685 -0.167468 -0.065429
-0.075439 0.111641 0.072227
-0.096279 0.032741 0.069601
-0.103348 -0.049893 0.268975
-0.063403 -0.132048 0.019937
0.109324 0.164421 -0.050185
0.086238 0.126748 -0.058706
-0.186726 -0.024048 0.379565
0.179946 0.013035 -0.066073
0.227780 -0.170150 -0.011983
-0.147503 -0.030753 0.145105
-0.064221 -0.129539 0.110409
-0.005458 -0.117984 -0.004927
-0.094850 0.116494 0.267905
0.060859 0.154407 -0.019164
-0.085468 -0.135993 -0.365998
-0.065700 -0.135337 -0.026373
-0.118460 -0.077299 0.387563
-0.097935 0.120477 0.243284
-0.140648 -0.008588 0.030915
-0.105552 -0.102470 -0.063371
-0.072992 0.095704 -0.102785
0.182564 0.151173 -0.009602
0.135239 -0.160610 -0.060418
-0.099854 -0.091392 0.333062
-0.093683 -0.079423 0.293920
-0.065253 -0.120378 -0.245812
0.147823 -0.008981 -0.010187
-0.137669 -0.077079 0.237160
-0.163440 0.060713 0.252675
-0.109123 -0.040582 0.275740
0.053952 -0.041652 -0.058124
-0.104774 0.117579 -0.314756
0.008691 -0.034356 -0.067207
-0.155868 0.069417 0.373995
-0.091086 0.132379 -0.343808
-0.180411 0.075951 0.334475
0.233149 -0.098378 -0.055881
-0.112108 0.083702 -0.059001
0.110880 -0.038316 -0.006808
-0.147843 0.036954 0.147102
-0.093350 -0.122193 0.257932
-0.055286 0.064718 -0.015817
-0.111733 -0.070146 -0.013861
0.056377 0.140423 -0.056178
0.226005 -0.169421 -0.101908
-0.024441 0.141117 -0.015922
0.225519 0.160085 -0.236364
-0.081986 -0.121930 0.161424
0.201168 0.154555 -0.241016
0.201440 -0.159365 -0.237055
-0.152849 0.019627 0.144363
0.153127 0.124473 -0.014316
-0.076663 -0.132354 -0.049734
-0.052489 0.046798 -0.066227
-0.129534 -0.005605 0.010876
0.027135 -0.085563 -0.004569
0.089453 0.122141 -0.007555
-0.130028 0.006819 -0.009414
0.156715 0.004219 -0.011199
-0.174979 0.070177 0.327816
0.217306 -0.042800 -0.014894
-0.122656 -0.081729 -0.044350
0.151205 -0.040779 -0.064173
0.043442 0.157548 -0.058011
-0.162191 -0.125997 0.360343
0.214194 -0.020641 -0.014546
-0.110854 0.081722 0.357970
0.206777 -0.145944 -0.231499
-0.195415 -0.080484 0.364287
-0.119027 -0.086570 0.082907
-0.094816 0.037112 -0.082019
-0.068891 -0.099549 0.096955
-0.125789 -0.100737 0.141479
-0.091018 0.071877 0.246605
-0.146063 0.056572 0.363863
-0.106679 0.112511 0.055459
-0.107439 -0.028742 0.286333
0.137682 -0.162070 -0.066817
0.218407 -0.064846 -0.067113
-0.059536 -0.143954 -0.040884
-0.102682 0.105262 -0.071180
-0.088828 0.104273 0.274363
-0.107960 0.076304 0.351875
-0.095779 0.090919 0.319517
-0.088783 -0.138869 -0.354869
0.036668 -0.156514 -0.011551
0.238240 -0.011132 -0.049086
0.231904 0.128399 -0.054859
-0.150829 0.068957 0.178136
-0.064111 -0.123304 -0.113278
-0.091412 -0.051761 0.212231
-0.096171 0.057203 -0.082521
-0.054405 -0.101619 -0.006019
-0.074831 0.066127 0.005541
-0.164831 0.003125 0.296668
-0.126842 0.025464 0.008865
-0.044023 -0.106729 -0.005484
-0.066584 -0.108498 0.145461
0.130799 0.050859 -0.062851
-0.101068 -0.110185 -0.020974
0.198122 0.152524 -0.217269
-0.176737 -0.050994 0.293023
-0.176659 -0.079344 0.343165
-0.151374 0.072492 0.255153
0.127713 -0.098427 -0.006654
-0.104076 0.089395 0.352115
0.191175 0.159981 -0.191582
-0.094399 -0.015779 0.169820
-0.093492 -0.039322 0.167931
0.187765 0.118525 -0.011639
0.203421 -0.029719 -0.013100
0.001040 0.050079 -0.061295
0.221563 -0.159259 -0.277705
-0.020365 0.040724 -0.063506
0.060344 -0.007010 -0.059912
0.201959 0.169720 -0.127722
-0.133374 0.062990 0.083052
0.123732 -0.057584 -0.005889
-0.094264 -0.112435 0.006823
-0.123822 0.043458 -0.014468
0.146435 -0.092883 -0.009045
0.176249 0.155472 -0.057652
0.224207 -0.058229 -0.066944
-0.052975 -0.109118 -0.180692
-0.102230 0.119521 0.315254
-0.003965 0.126207 -0.055870
0.018153 0.150752 -0.027477
-0.082152 -0.124374 -0.078036
-0.144732 0.073893 0.239884
-0.085904 -0.000133 -0.074846
0.215652 0.165660 -0.304341
-0.094793 0.117272 0.070741
0.230414 -0.130613 -0.037591
0.027503 -0.036927 -0.003767
0.214166 -0.148628 -0.136306
0.048984 -0.101884 -0.006035
-0.055972 -0.138474 -0.013190
-0.081796 -0.080156 0.068843
-0.078413 0.111686 -0.328508
-0.078515 0.114376 0.104883
-0.129294 -0.129754 0.377821
-0.136873 -0.118694 0.308933
0.089399 -0.074087 -0.059253
0.132180 -0.027588 -0.009073
-0.114649 0.111416 0.170477
-0.008543 0.051274 -0.008634
-0.174374 -0.099220 0.397430
0.222870 -0.157490 -0.213047
-0.080733 0.106370 -0.322903
-0.079794 0.109262 -0.265584
-0.013873 -0.079230 -0.063503
-0.197484 -0.007999 0.372126
-0.083361 0.068857 0.144895
-0.146752 0.060480 0.366906
0.141917 -0.109910 -0.008031
-0.155677 -0.000406 0.216461
0.001945 0.083009 -0.059036
-0.092966 0.106495 -0.382584
-0.064096 -0.121194 -0.275045
-0.067457 0.114379 0.087672
-0.184991 0.097556 0.359899
-0.045223 0.144310 -0.034398
0.202978 0.150067 -0.163040
0.024119 0.157491 -0.051394
-0.112711 -0.105352 -0.008983
-0.082270 0.109250 0.232339
0.231426 -0.080885 -0.046889
-0.076407 0.139257 -0.067820
-0.089737 -0.108068 -0.133403
-0.112478 0.105624 0.057375
0.029910 -0.008331 -0.006189
-0.136952 0.021931 0.363843
0.020069 -0.160400 -0.051483
-0.148316 -0.066015 0.208811
0.223709 0.158612 -0.288536
0.224885 -0.126659 -0.018588
0.221588 0.156476 -0.134124
0.056132 0.084275 -0.053365
-0.129695 -0.090855 0.231918
-0.136589 0.128342 0.313679
0.171926 -0.171213 -0.058947
-0.101390 0.125951 -0.043157
0.202676 -0.155327 -0.371846
-0.073730 0.100225 0.179896
0.211001 -0.179366 -0.401701
-0.022184 -0.012895 -0.066603
-0.064440 0.013299 -0.067263
-0.081258 -0.130071 -0.353883
0.212440 -0.169335 -0.005626
0.047218 -0.059834 -0.004581
0.132490 0.000433 -0.009659
-0.133121 0.082433 0.132378
0.196753 0.161150 -0.231831
-0.130766 -0.120129 0.271123
0.191474 -0.002591 -0.012755
0.033963 -0.002811 -0.057915
-0.192931 -0.090855 0.392308
-0.031363 0.140588 -0.022378
-0.000556 0.153636 -0.036776
-0.178174 -0.117930 0.375891
-0.090203 -0.119906 -0.068607
-0.093846 -0.130400 -0.367304
-0.079499 -0.118853 0.247049
0.210755 0.162462 -0.009850
-0.109781 0.091217 -0.064867
-0.098255 0.129440 -0.394059
-0.132561 -0.084874 0.195746
-0.082049 0.092808 0.236980
-0.059778 -0.113674 0.096997
-0.065114 -0.090091 -0.115279
-0.070448 -0.101655 0.055763
0.071489 0.094785 -0.008161
-0.131357 -0.089544 0.148943
0.205545 -0.167002 -0.277007
0.135884 -0.159335 -0.002894
-0.119598 -0.044014 -0.008315
0.221350 -0.173012 -0.242301
-0.115157 0.069520 -0.069922
-0.088803 0.019047 0.030562
0.194102 -0.174676 -0.063368
-0.071366 -0.078719 0.014255
0.091943 0.030527 -0.010574
0.002051 0.154020 -0.048332
-0.106813 -0.134405 -0.390574
-0.175260 -0.034388 0.293598
-0.095490 -0.127858 -0.334315
-0.193942 0.069375 0.371174
-0.048375 0.114322 -0.096425
-0.106505 0.124706 -0.323730
0.206953 -0.160612 -0.152028
-0.034140 -0.105451 -0.009139
0.182100 0.161049 -0.113918
-0.119621 0.100329 0.044551
-0.154180 0.037100 0.173124
0.031870 0.092939 -0.057520
0.202473 0.165125 -0.316664
0.131068 0.165563 -0.028242
-0.033259 0.098687 -0.062292
-0.060725 -0.103779 -0.186073
0.226484 0.164792 -0.177991
0.132281 0.081158 -0.061372
-0.094402 0.056736 0.263808
-0.089400 0.113952 -0.360821
-0.176905 -0.109085 0.358085
0.043579 0.014629 -0.006088
-0.150709 -0.059899 0.190394
-0.099448 -0.121268 0.245180
0.208100 0.148402 -0.006053
-0.128451 -0.081809 0.062603
0.183097 -0.067715 -0.008125
-0.165919 -0.120270 0.396024
-0.085918 -0.067171 0.089978
-0.133966 -0.090281 0.204181
0.159961 -0.169440 -0.059618
0.224093 -0.172811 -0.351647
0.196972 0.127080 -0.064144
0.157280 -0.171869 -0.015039
-0.138191 -0.071482 0.164005
0.234150 0.016966 -0.054288
-0.084931 0.065233 0.126444
0.190394 0.072335 -0.012371
-0.108297 0.110838 0.368433
-0.071470 -0.123150 -0.290779
-0.114327 0.113292 0.204751
-0.195168 -0.077481 0.347846
-0.087784 -0.045075 0.131919
0.231686 -0.108821 -0.056631
-0.033825 -0.147249 -0.061903
-0.115887 -0.117350 0.365873
0.223439 -0.042204 -0.064704
-0.075481 -0.033219 -0.015622
-0.092250 0.062916 0.137711
-0.146581 -0.015125 0.368365
-0.115256 -0.011974 0.324878
-0.191370 -0.010586 0.316410
-0.101028 0.116555 0.323140
-0.125811 0.094764 0.165557
-0.050403 -0.086754 -0.008410
-0.077097 0.066588 0.062735
0.218656 -0.027225 -0.066699
0.034346 -0.144565 -0.004858
-0.204421 -0.046621 0.374908
-0.082774 -0.124510 0.090604
0.197804 -0.164822 -0.300345
0.232077 0.037269 -0.043185
0.023169 0.121653 -0.005278
-0.144532 0.053272 0.100806
-0.086700 -0.126107 0.060314
-0.085595 -0.107985 -0.084401
0.189813 0.152286 -0.179207
-0.082780 0.120640 0.118315
-0.148886 0.133010 0.361595
-0.000685 0.099252 -0.052832
0.217738 -0.153921 -0.181268
-0.076066 0.103570 -0.126914
-0.128071 0.043356 -0.070566
0.129326 0.161118 -0.009776
-0.057857 0.140245 -0.078976
-0.169605 0.061359 0.307467
-0.089938 -0.124297 -0.340111
-0.114444 -0.062192 0.356689
0.204179 -0.161423 -0.267419
-0.096721 0.064274 0.250137
0.134958 0.133711 -0.007895
0.231603 0.110986 -0.029102
0.126666 0.035046 -0.010303
-0.085159 -0.121462 0.263424
-0.125009 -0.100471 0.164060
-0.087441 -0.108851 -0.155071
0.031559 -0.167005 -0.023808
0.188185 0.096566 -0.014725
0.154610 -0.086539 -0.063283
-0.087478 -0.126378 -0.236532
-0.057427 -0.117409 -0.066919
0.220527 -0.177916 -0.088589
0.205830 0.056977 -0.012883
0.145471 0.009988 -0.012076
-0.149606 0.053517 0.193345
0.096680 0.162702 -0.053099
0.219824 0.065651 -0.016692
-0.136927 0.068900 0.163321
0.059628 0.117457 -0.058635
-0.106230 0.095323 0.360956
-0.083309 0.091473 0.222079
-0.155192 -0.013662 0.206929
0.045896 0.052129 -0.005843
0.097614 -0.155153 -0.006491
-0.067120 0.131857 -0.085281
-0.136582 0.067755 0.099315
-0.188048 0.023655 0.299562
-0.081762 -0.109486 0.225759
-0.127107 0.046246 -0.039278
0.197758 -0.049346 -0.008032
-0.093030 0.006178 0.133659
0.014862 -0.156093 -0.022810
-0.077012 0.077627 0.075618
-0.201978 -0.006617 0.344790
-0.064806 -0.098191 -0.001069
-0.083711 0.128429 -0.363697
0.001569 -0.047061 -0.062616
-0.135226 0.058584 0.061083
-0.126044 0.030125 -0.031317
0.103664 0.005987 -0.006897
-0.097096 -0.131323 -0.305462
0.196949 0.159107 -0.215988
0.147293 -0.138734 -0.061302
-0.098222 -0.037957 0.214480
0.202801 0.167798 -0.022706
-0.073648 -0.132484 -0.178785
-0.077566 0.128328 -0.296792
0.228464 -0.146321 -0.053237
-0.108197 -0.107376 -0.056487
-0.133300 -0.017202 0.124684
0.059427 0.045201 -0.004928
0.087445 0.036095 -0.061459
0.220737 0.158079 -0.354303
-0.167837 -0.093527 0.332973
-0.110474 0.005785 0.308888
-0.077318 0.112717 0.098315
-0.168459 -0.052094 0.388833
-0.057571 0.078641 -0.016631
-0.142320 0.119052 0.392734
-0.083628 0.116371 0.080133
0.229701 -0.113625 -0.032812
-0.102874 0.014979 0.125994
-0.098993 -0.125441 0.275313
-0.198648 -0.022133 0.343867
-0.142765 -0.036749 0.137127
-0.079093 -0.135805 -0.031961
0.216302 -0.174218 -0.141486
0.213036 -0.154427 -0.315341
-0.082582 -0.129741 0.081465
-0.032283 0.068184 -0.070712
-0.072246 0.085809 0.060653
0.193827 -0.091108 -0.066038
-0.046213 -0.001909 -0.017268
-0.124524 -0.008517 0.352438
-0.127480 -0.099199 0.236267
-0.069341 0.107690 -0.217361
0.133401 -0.141966 -0.061394
0.088937 -0.097404 -0.003791
0.102555 0.156972 -0.052329
-0.191979 0.060544 0.368515
0.044648 -0.012137 -0.059893
0.180733 0.008929 -0.014021
0.095493 0.142491 -0.008867
-0.129519 0.011165 -0.049515
-0.206963 -0.010563 0.374231
-0.085830 -0.045558 -0.096483
-0.081721 -0.123513 -0.129037
-0.114744 -0.019132 0.295592
-0.173466 0.087065 0.368611
-0.088592 -0.032167 -0.072907
0.182582 -0.141877 -0.081967
-0.184359 -0.048449 0.311608
-0.097304 0.020366 0.130403
-0.082270 -0.096451 0.118178
0.222072 0.160613 -0.243507
0.227221 0.149009 -0.102167
-0.191425 0.017563 0.343341
-0.165103 -0.104745 0.328679
-0.154355 -0.107536 0.316190
0.039611 0.155238 -0.055138
0.220190 -0.001897 -0.064231
0.167865 0.061704 -0.010829
0.184329 0.145708 -0.051692
0.083978 -0.148175 -0.002688
0.082159 0.060882 -0.060895
-0.081558 0.127199 -0.304582
0.209631 -0.173714 -0.360683
0.176435 -0.171207 -0.006527
0.215373 0.012171 -0.064995
0.161677 -0.054343 -0.065749
-0.138382 0.037371 0.123633
-0.068980 0.106761 -0.260262
-0.001861 0.066747 -0.008661
0.208658 0.175928 -0.099679
-0.155684 0.043702 0.238172
-0.148889 -0.133664 0.381535
0.228273 -0.137687 -0.025861
-0.196769 -0.057413 0.352416
0.180348 -0.131614 -0.009243
0.210276 0.076193 -0.066296
0.215443 0.102518 -0.016328
0.223653 -0.170891 -0.283215
-0.084189 -0.066206 0.168843
0.165145 0.076601 -0.065769
0.234601 0.106791 -0.046992
-0.066830 0.083325 -0.078692
0.132067 0.162404 -0.053002
-0.130087 -0.032105 0.370046
0.192045 -0.149968 -0.152033
0.195360 0.154244 -0.199660
0.004219 0.115400 -0.008954
-0.199245 -0.027692 0.348307
-0.070770 -0.135498 -0.270825
0.073576 0.153715 -0.039387
0.202642 0.157963 -0.360849
-0.091223 -0.084569 0.256167
-0.197978 0.058757 0.364996
0.039766 0.148438 -0.010820
-0.092578 -0.087670 -0.090991
-0.174120 0.082273 0.318167
-0.065284 0.133896 -0.073893
-0.126845 0.092199 0.084694
0.209837 -0.000668 -0.066558
0.196970 -0.047795 -0.069347
-0.129456 0.131863 0.320993
-0.091854 -0.124714 -0.207279
-0.095271 -0.025901 -0.080699
-0.113647 -0.114959 0.218750
0.228800 -0.082222 -0.066377
-0.166580 0.061033 0.286604
0.198191 0.055211 -0.063353
0.222026 0.158030 -0.199163
-0.084266 0.124587 -0.252905
-0.098752 -0.120012 -0.308472
0.000049 -0.126145 -0.061699
-0.089729 0.119821 -0.374336
0.215943 0.039504 -0.019578
0.206333 -0.168532 -0.187838
0.234465 0.018719 -0.022788
-0.086129 -0.050743 0.164262
0.193557 -0.149368 -0.173970
-0.012360 -0.026692 -0.061212
-0.130494 0.045047 0.041140
-0.154798 0.012226 0.161214
-0.087723 0.129096 -0.249220
-0.153054 -0.122585 0.333703
0.149070 -0.171872 -0.047218
-0.136901 0.045983 0.104011
0.170171 -0.171755 -0.012301
-0.068318 0.107777 -0.189661
-0.073472 0.138048 -0.048796
-0.136310 -0.001723 -0.002111
0.014385 0.080045 -0.008114
0.196292 0.177463 -0.055440
-0.070987 -0.129882 -0.091462
0.009505 0.139848 -0.060215
-0.116414 0.106469 -0.026395
0.107131 0.150599 -0.053851
0.235738 0.138066 -0.056409
0.217072 -0.173011 -0.310033
-0.039258 -0.121820 -0.077880
0.105590 0.153011 -0.051983
0.159394 -0.007049 -0.062907
-0.133304 0.064362 -0.046252
0.036645 -0.006760 -0.007538
-0.119021 -0.065799 -0.066767
-0.138957 -0.004911 0.127484
-0.093254 -0.059842 0.271836
-0.086944 -0.121243 -0.324412
0.205668 -0.148348 -0.277483
0.077998 0.095266 -0.060749
0.083813 -0.122306 -0.004007
-0.200903 0.057505 0.374450
-0.090297 0.115973 -0.112860
-0.068679 -0.103712 0.120638
-0.150234 -0.044883 0.195129
-0.128484 -0.119580 0.315216
-0.203538 0.032354 0.373769
-0.103402 0.114751 0.199936
-0.177695 -0.119277 0.376740
-0.097426 -0.074891 0.224409
0.232174 -0.100639 -0.041358
-0.160730 -0.134061 0.370949
-0.083739 0.126387 -0.316173
0.195972 -0.144233 -0.226240
0.200841 -0.164606 -0.217055
-0.079373 0.127266 -0.212022
-0.141014 0.132126 0.330592
0.171156 0.082659 -0.011773
-0.059984 -0.041274 -0.070007
-0.109601 -0.130376 -0.380591
-0.180620 -0.035786 0.391187
-0.098721 0.028221 0.218546
-0.187579 0.039977 0.323804
0.096486 0.108722 -0.058972
-0.191729 -0.067701 0.342858
-0.189320 -0.047293 0.338741
0.162050 -0.019649 -0.009279
0.188249 -0.157188 -0.115598
-0.186474 0.100130 0.372934
-0.138364 0.041342 0.064741
-0.148442 -0.039339 0.213658
-0.089171 0.047202 0.187141
0.229905 0.061793 -0.025301
-0.146853 0.065893 0.195087
-0.078764 0.112287 -0.135630
-0.090061 0.129736 -0.136278
0.233640 -0.078694 -0.036409
-0.107679 -0.130967 -0.369245
0.207066 0.082468 -0.012296
-0.117335 -0.111902 0.377214
-0.040731 0.044619 -0.014903
0.062024 -0.154891 -0.007985
-0.023286 -0.146900 -0.011098
0.140331 -0.077596 -0.008036
-0.163353 0.046072 0.252882
0.033712 -0.160981 -0.038023
-0.098094 -0.116328 -0.044128
-0.213195 -0.024256 0.361899
-0.165979 0.104111 0.333108
0.201800 -0.144473 -0.088075
-0.083327 0.118802 0.017942
-0.107495 0.110245 -0.021594
-0.088033 -0.112530 -0.183903
0.087611 -0.115884 -0.059279
-0.087919 -0.062253 0.199956
0.055237 0.057362 -0.007494
-0.198288 0.010420 0.343203
0.070941 0.006531 -0.006590
-0.034815 0.011611 -0.061933
-0.153571 -0.001212 0.144110
0.201793 0.157637 -0.396542
-0.097342 -0.105240 0.340028
-0.076263 0.122811 -0.298961
0.220667 -0.166941 -0.204542
-0.182175 0.031164 0.282623
0.232793 0.135468 -0.061844
-0.082311 -0.135302 -0.284819
0.071985 -0.154677 -0.050734
0.223259 -0.172920 -0.297032
-0.128493 0.012618 0.358755
0.177991 -0.088793 -0.066204
-0.055753 -0.128865 -0.110731
-0.167541 -0.030219 0.391292
-0.115420 -0.107161 -0.032342
-0.175312 -0.067900 0.290156
-0.129533 0.080431 0.021646
-0.013777 0.041589 -0.009322
-0.170646 0.023360 0.268312
0.045278 0.038674 -0.061871
-0.076793 -0.100729 0.174727
-0.135086 0.120068 0.396745
0.220215 -0.175583 -0.133967
-0.061137 0.113917 -0.003096
0.214685 -0.040137 -0.067270
-0.121540 -0.088016 -0.058253
-0.099105 -0.051020 0.125054
-0.065132 -0.096978 -0.127169
-0.044331 -0.054205 -0.011859
0.208926 -0.142581 -0.010649
0.083637 0.151624 -0.018196
0.152872 -0.151911 -0.001053
0.180884 -0.112819 -0.067153
-0.071836 0.090338 0.124539
-0.080761 0.079689 0.147490
0.073466 0.138039 -0.008049
0.227524 0.165489 -0.212539
-0.147539 0.096746 0.268836
-0.138725 0.018925 0.066185
-0.063629 -0.129260 -0.203281
0.201463 0.103454 -0.012258
-0.125211 0.089000 0.095136
-0.152008 0.043037 0.196540
-0.132724 0.063858 0.016387
-0.138220 0.039744 0.369005
-0.151505 0.074724 0.372640
-0.120718 -0.092779 0.111532
-0.117544 -0.053836 0.363391
-0.092990 0.008481 -0.082826
-0.084753 0.081071 0.198771
0.231297 0.062899 -0.057272
-0.152933 0.032139 0.166271
-0.070848 -0.117478 0.162871
0.175443 -0.083439 -0.010710
-0.131006 -0.056728 0.385910
-0.065511 0.116927 0.064886
-0.000731 -0.162031 -0.030229
0.196207 -0.154155 -0.399107
-0.083857 -0.085071 0.175698
-0.098997 -0.119647 0.010478
-0.103220 -0.051073 0.311442
-0.086537 0.024556 0.043427
-0.190220 -0.032361 0.324714
-0.212955 0.012358 0.363035
-0.127063 -0.071606 0.128283
-0.093885 -0.005703 0.132935
-0.089485 0.080011 0.212687
-0.144513 0.052365 0.145547
-0.124857 -0.043148 0.377581
-0.101863 -0.098076 0.355533
0.111376 0.045872 -0.064859
-0.087307 0.124639 -0.169548
-0.080886 -0.099774 -0.122480
-0.153217 0.070619 0.223913
-0.084196 -0.121673 0.095017
0.203374 0.150159 -0.195634
0.022547 0.134478 -0.010735
-0.118816 -0.124548 0.283039
-0.100138 -0.113308 -0.004066
0.161301 0.157054 -0.051395
0.226783 0.157971 -0.177121
0.189817 0.156538 -0.150512
-0.103744 0.112326 0.000600
-0.080647 0.123870 -0.328546
-0.019819 0.147407 -0.030161
0.225154 0.041565 -0.060390
-0.073876 -0.042044 -0.002269
-0.093417 0.020881 0.138488
-0.086002 -0.094837 0.243822
0.229838 0.108190 -0.054945
-0.094923 -0.123464 -0.375275
0.229903 0.150070 -0.020083
-0.077353 -0.128849 -0.072944
-0.176760 0.096075 0.349562
-0.152355 -0.002995 0.211829
-0.152296 0.095252 0.383270
0.040540 0.123088 -0.008211
0.222015 -0.158269 -0.266765
0.118040 0.124453 -0.011700
-0.093913 0.101441 0.320689
-0.052949 0.034942 -0.016971
-0.123727 0.095123 0.070447
-0.099341 0.030444 0.066701
-0.103459 -0.130845 0.346999
-0.056898 0.141723 -0.047553
-0.135249 0.045195 0.375806
-0.095614 0.013855 0.042758
-0.128459 -0.006002 -0.048511
0.042634 0.157805 -0.035930
-0.125741 0.016095 -0.079655
-0.175438 -0.036786 0.388584
0.145662 0.068248 -0.065793
0.216315 0.130955 -0.065320
-0.095042 -0.011910 0.124867
-0.068141 -0.134134 0.087612
0.222438 -0.168092 -0.332946
0.167108 0.119145 -0.063658
-0.043722 0.099584 -0.012172
-0.140201 -0.075801 0.195849
-0.116819 -0.116539 0.156355
-0.056809 -0.036382 -0.015636
-0.149791 -0.060307 0.211744
-0.099167 0.051813 0.307173
-0.077062 -0.095504 0.139554
0.191473 0.143890 -0.080297
0.078262 0.157587 -0.051563
0.096599 -0.164034 -0.027262
-0.124884 0.066341 -0.055819
-0.079328 0.079244 0.069751
-0.160703 -0.115773 0.346603
0.183152 0.146088 -0.088533
-0.060864 -0.107257 -0.203075
-0.113198 -0.025776 0.302412
-0.116447 0.074085 0.356906
-0.090944 0.117325 0.026743
-0.112024 -0.121126 -0.394618
0.199485 -0.163602 -0.121108
-0.045785 -0.040238 -0.072043
0.188591 -0.127929 -0.008327
0.113068 -0.066325 -0.061117
-0.088005 -0.124918 -0.353283
-0.191908 0.095423 0.368915
-0.089109 -0.114246 -0.070277
-0.134563 -0.037033 -0.012620
-0.155292 0.063953 0.230958
0.233569 -0.001276 -0.058594
-0.104267 0.106936 -0.012879
-0.033664 -0.150760 -0.061191
0.227210 0.078222 -0.062239
0.222979 -0.168654 -0.161380
-0.154816 0.124846 0.321892
-0.101536 0.114324 -0.219671
0.142351 0.143826 -0.007434
-0.068131 0.028689 -0.021101
0.115991 0.108496 -0.008924
0.201011 -0.151091 -0.244247
-0.131990 0.024371 0.032201
-0.170028 -0.085254 0.321657
-0.193836 -0.065921 0.387842
-0.099719 0.116321 -0.190765
-0.132478 -0.104989 0.382284
-0.108312 0.039731 0.273235
-0.083968 0.108193 0.204489
-0.019203 -0.146180 -0.059312
0.140894 0.157694 -0.013540
0.227119 0.116577 -0.023121
-0.087806 0.016785 0.017353
-0.119448 0.004980 0.347955
-0.186297 -0.079444 0.350453
-0.152679 0.022646 0.214144
0.197522 -0.097293 -0.012160
-0.064169 0.116301 -0.183931
0.067420 0.071689 -0.058614
-0.187865 -0.013646 0.307239
0.074975 -0.112132 -0.001763
0.221247 0.161401 -0.306008
-0.103384 0.116819 0.248660
-0.099244 0.049658 0.133604
-0.084888 -0.119843 -0.134199
-0.102702 0.118821 -0.295500
0.167013 -0.157833 -0.068543
-0.089226 0.115750 0.269039
0.177366 0.160576 -0.013252
-0.111935 0.077329 -0.070224
0.204284 -0.140805 -0.252117
-0.097715 0.119413 -0.202843
-0.091511 -0.077596 0.112156
-0.156495 0.008414 0.176906
0.173280 -0.159046 -0.005101
-0.109554 -0.130911 -0.400281
-0.091421 -0.127669 -0.296426
0.218269 0.157900 -0.326139
0.204893 -0.151489 -0.278219
-0.149743 -0.094365 0.266525
-0.129259 -0.003601 -0.029962
-0.097577 -0.120755 0.136840
0.224631 0.170862 -0.040566
-0.108114 0.030243 0.287047
-0.092599 0.116254 -0.081959
-0.126054 -0.086610 -0.039503
0.223484 0.170240 -0.157390
-0.163455 -0.044107 0.282983
0.219867 0.149378 -0.306049
-0.088607 0.073110 0.173850
-0.044810 0.083866 -0.014784
0.219150 0.066721 -0.065433
-0.088428 -0.033666 0.201123
-0.116109 0.122189 0.371418
-0.058563 -0.044067 -0.010778
0.224706 -0.163189 -0.343184
0.217506 -0.169823 -0.119863
-0.194791 0.073947 0.366075
-0.110801 0.093233 0.362528
0.046807 -0.095357 -0.004574
-0.043267 0.101585 -0.064854
0.051860 0.128183 -0.053661
0.198619 0.163222 -0.402640
-0.071045 -0.132185 -0.311375
-0.194694 -0.103868 0.387408
0.027300 -0.124040 -0.006122
0.214020 0.157378 -0.374693
-0.212400 -0.016889 0.358483
0.148727 0.155148 -0.058368
-0.095711 -0.035756 0.127148
-0.090819 0.131741 -0.386754
-0.085002 -0.122205 -0.139321
0.215578 0.026921 -0.062953
-0.089535 0.131125 -0.344555
-0.011780 0.094025 -0.008112
0.037689 -0.107839 -0.005334
-0.143103 0.023462 0.070776
0.093314 0.024126 -0.060747
-0.028955 -0.058567 -0.066247
-0.134202 -0.020541 -0.009492
-0.064898 0.117883 0.023903
-0.081821 -0.115773 -0.164131
-0.117351 0.042402 0.351128
-0.108925 0.034073 0.217422
-0.042120 0.133893 -0.068006
-0.108838 0.052287 0.260133
-0.194790 -0.063126 0.361466
0.027449 0.040569 -0.007766
0.222567 -0.072519 -0.023357
0.199693 0.169630 -0.384348
0.079958 -0.086838 -0.005636
-0.120297 0.104213 0.128974
-0.188777 0.088837 0.364345
-0.112165 0.106728 0.073002
0.204407 0.164391 -0.262038
0.221660 0.171881 -0.106716
-0.042770 -0.063468 -0.068415
-0.083123 -0.129935 0.118461
-0.149327 -0.047413 0.383641
-0.159090 0.025976 0.248729
-0.203954 -0.084917 0.375699
0.138034 0.025798 -0.062478
0.130181 0.164888 -0.051223
-0.051029 0.016531 -0.020548
-0.131896 0.119572 0.265706
-0.127233 0.007689 -0.019639
-0.129467 -0.010627 -0.071494
-0.143472 -0.076260 0.249034
-0.027146 0.060556 -0.011772
0.025051 0.126922 -0.011067
0.166717 0.024786 -0.066512
-0.150808 -0.054080 0.205206
0.056524 -0.140312 -0.003176
-0.144191 0.007703 0.046853
0.013245 0.096534 -0.005238
-0.150171 -0.066624 0.215714
-0.158954 0.106545 0.317668
-0.186229 0.017879 0.288311
-0.201525 0.043369 0.374819
0.233104 -0.019371 -0.059147
-0.148616 -0.053445 0.156995
0.038720 -0.153693 -0.014768
0.171577 -0.025138 -0.068255
0.223260 0.166872 -0.029527
0.211122 -0.175702 -0.052248
-0.101448 -0.069725 0.336113
0.219702 -0.162421 -0.224162
0.091084 -0.160339 -0.036997
0.189046 0.087342 -0.064946
-0.065837 -0.016805 -0.017136
-0.211329 0.023999 0.366393
-0.088773 0.115404 0.005733
-0.100782 -0.066533 0.319083
-0.197835 0.004182 0.317625
0.175568 -0.154294 -0.005043
-0.074294 0.024295 -0.068820
-0.116888 0.102419 0.016515
-0.071608 -0.121948 -0.307365
0.229984 0.099469 -0.033072
-0.091769 0.111267 -0.071666
-0.133742 0.039485 -0.066172
-0.046594 0.124029 -0.014495
0.189957 0.163109 -0.073187
-0.101031 0.055061 0.320741
0.227991 -0.182810 -0.063857
0.021421 -0.064246 -0.066265
-0.131824 0.065024 0.089269
-0.161114 0.061299 0.267161
-0.041056 0.107306 -0.088571
0.212372 0.161930 -0.405785
0.193393 -0.152231 -0.109985
-0.089274 -0.002095 0.014935
0.203785 -0.173521 -0.004948
-0.137186 0.099388 0.251080
0.172414 0.136665 -0.010694
0.000316 0.033250 -0.008081
-0.074491 0.124734 -0.266229
-0.089652 0.101805 -0.147494
0.209476 0.164930 -0.214708
0.165587 -0.168247 -0.058493
0.061233 0.034254 -0.059409
-0.094385 0.018398 0.150787
-0.056512 -0.129256 -0.080308
-0.010554 -0.152603 -0.020599
-0.095794 -0.049849 0.061233
-0.087319 -0.120400 0.256801
-0.112160 -0.115762 0.079578
-0.112152 0.053501 -0.066922
0.009337 0.035553 -0.059746
-0.071995 -0.118654 0.152522
-0.120299 0.044778 -0.067310
-0.210913 -0.054370 0.390944
-0.091118 -0.056380 0.080416
0.176847 -0.049602 -0.069762
-0.092323 0.125532 -0.028020
-0.178949 -0.006231 0.295632
0.195881 -0.149490 -0.256939
-0.083678 -0.106330 0.271402
-0.038854 0.137893 -0.020369
0.232098 -0.054126 -0.064421
-0.088622 0.118688 0.255822
-0.087657 -0.121464 -0.172145
0.116345 -0.162122 -0.059706
-0.130262 0.076756 0.018302
0.216638 0.169464 -0.335736
-0.124141 0.025879 0.354135
-0.048695 -0.138352 -0.018594
-0.067416 -0.127575 -0.228913
0.175196 -0.028485 -0.071092
-0.083841 0.029311 0.006079
