ply
format ascii 1.0
element vertex 1678
property float x
property float y
property float z
end_header
-0.136058 -0.103034 0.054930
-0.159577 -0.147166 0.158886
-0.113771 -0.167539 0.077923
-0.160092 -0.177395 0.308779
-0.144157 -0.140091 0.114283
0.203750 0.173220 -0.104956
-0.023838 -0.170265 -0.005681
0.036815 -0.182605 0.007730
-0.209009 0.038797 0.377335
0.093283 -0.024546 0.001050
-0.127927 -0.120487 0.098766
0.046871 -0.005725 -0.016935
-0.087083 0.115958 -0.018227
0.058847 0.103238 0.004878
-0.198947 0.126972 0.379157
0.214221 0.054126 -0.027708
-0.012291 -0.174446 -0.002215
0.175530 0.173418 -0.337102
-0.187906 -0.103101 0.373251
-0.074121 -0.183558 0.002443
-0.157487 -0.074318 0.275864
0.016844 0.119353 0.012279
-0.042885 0.015124 0.002440
-0.060726 -0.091923 -0.019765
0.043402 -0.090070 0.006022
0.206423 0.150688 -0.019856
-0.104279 0.155969 -0.002647
-0.166698 -0.113444 0.167463
0.198967 -0.095273 -0.033643
-0.173705 0.019848 0.183928
-0.035072 0.152823 -0.011132
0.037522 -0.190365 0.005059
-0.127860 -0.065313 0.029569
-0.103873 0.157207 -0.103835
-0.158474 -0.084805 0.097127
0.153468 0.161134 -0.024446
-0.128051 -0.184375 0.113058
-0.135775 0.196375 0.188790
-0.195587 -0.082237 0.305259
-0.145223 -0.065646 0.129082
-0.161248 -0.093969 0.304471
-0.080258 0.135844 -0.013188
0.074536 0.059666 0.003892
-0.198301 0.020886 0.336514
0.208725 -0.051302 -0.007440
-0.163090 0.069392 0.282277
0.113836 -0.200573 0.002327
-0.122723 -0.177947 0.076142
-0.126480 -0.050939 0.016717
-0.061731 -0.173624 0.005251
-0.109976 -0.170935 -0.141664
0.056334 0.088748 -0.020704
0.096747 0.203034 0.013913
-0.134502 -0.020741 0.028301
-0.021042 -0.075771 0.003909
-0.192749 0.084601 0.381726
0.190124 -0.178306 -0.072125
-0.170719 -0.057251 0.154917
-0.108827 0.169549 0.021852
-0.187057 -0.155252 0.346373
-0.154855 0.168409 0.119717
-0.170422 -0.082897 0.333782
0.177193 -0.158029 0.006556
0.064710 0.025618 -0.016202
0.037191 0.079271 -0.019753
0.192894 -0.174215 -0.125119
-0.114573 0.160281 -0.127610
0.211841 0.160136 -0.010443
0.149166 0.009975 -0.000113
-0.176604 0.049757 0.218230
0.013858 -0.193465 0.003439
0.175610 -0.171658 -0.355077
0.101628 -0.058103 0.001187
-0.146620 0.090907 0.199233
-0.189571 0.146412 0.339592
0.196816 0.189236 0.000209
0.176331 0.163724 -0.027364
0.190791 0.179750 -0.192046
-0.170268 -0.061749 0.154092
0.029026 -0.146441 -0.009822
-0.141870 0.068255 0.078012
-0.144419 0.065618 0.119702
0.152653 -0.149057 -0.016719
-0.083373 -0.160587 0.004497
-0.166663 0.172637 0.241247
0.002087 0.142331 0.010163
-0.172851 -0.010109 0.174154
-0.170934 0.021806 0.158234
0.005441 -0.181536 0.000207
-0.075441 -0.008726 0.003274
-0.169395 0.037504 0.150391
0.189516 -0.170609 -0.254614
-0.064097 0.026534 0.001575
0.120019 0.122467 0.006089
-0.170711 -0.179441 0.300981
-0.185895 0.118836 0.287144
0.179417 0.052978 -0.032320
-0.171599 0.161065 0.226882
0.181504 -0.171484 -0.307634
-0.178787 0.140826 0.246959
-0.172932 -0.012413 0.180908
0.185778 0.171180 -0.268248
0.179602 -0.170306 -0.360268
-0.116731 0.202712 0.083463
-0.019939 0.018365 -0.015510
0.033874 0.111100 0.010030
0.175296 0.024894 -0.001343
-0.154757 0.198666 0.168019
-0.147981 -0.055025 0.215052
-0.166123 0.098424 0.163287
0.205610 0.177459 -0.017356
0.144865 0.003903 0.001060
0.030276 -0.158019 0.006189
-0.020344 0.087464 0.004155
-0.079556 -0.046444 -0.015583
0.202182 0.186310 -0.003376
-0.101061 0.162956 -0.139840
-0.095464 -0.156521 -0.101240
0.032283 0.143830 0.010754
-0.085041 -0.154749 -0.037138
-0.146633 0.176071 -0.341354
0.176687 -0.190478 0.001240
-0.148780 0.026963 0.179178
-0.135207 -0.091057 0.126459
-0.147930 0.104554 0.198616
-0.147734 -0.040877 0.178356
-0.166901 0.106980 0.321518
-0.103117 0.016327 0.007415
0.204389 -0.035386 -0.013252
-0.152097 0.073655 0.069134
0.209067 -0.032657 -0.038522
-0.167897 -0.118147 0.183542
-0.171114 -0.072577 0.168037
0.059887 -0.052295 -0.019525
0.116984 0.095383 -0.019227
-0.134366 -0.085678 0.071692
-0.121688 0.102647 0.016330
0.122674 0.205235 0.012212
-0.189728 -0.095816 0.373020
-0.140556 0.177271 0.070745
-0.038643 -0.125855 -0.021085
-0.129022 -0.082814 0.018241
0.047069 0.195655 0.017406
-0.025863 -0.026811 -0.014801
0.186768 0.193534 -0.009585
-0.151297 0.119532 0.228044
-0.141139 -0.108913 0.075868
-0.196335 0.055144 0.381202
-0.164239 -0.172482 0.311648
0.158809 -0.077938 -0.025265
-0.163933 0.124084 0.157389
0.025808 -0.102651 -0.013013
-0.081344 -0.185909 0.010490
0.051992 0.054528 0.004091
-0.195170 0.006698 0.380532
-0.131320 0.157067 0.145249
0.143555 -0.090548 0.004208
-0.152610 -0.020435 0.161259
-0.061152 -0.067770 -0.020050
0.133956 0.111534 -0.023368
0.033928 -0.076713 -0.016321
-0.124447 -0.165927 0.129347
0.143889 -0.037340 -0.023279
-0.148229 -0.195537 0.207861
0.205194 0.071421 -0.015009
-0.198685 0.101727 0.340716
-0.138754 -0.160102 0.250356
-0.150140 -0.116731 0.104299
0.069606 0.050931 -0.019063
-0.193557 0.071959 0.300510
-0.176227 0.119384 0.234494
0.056160 -0.027962 0.000096
0.088770 0.140905 -0.019894
-0.172054 0.160609 0.327808
-0.056035 0.168109 -0.003239
-0.145421 -0.140673 0.091996
0.191878 -0.174373 -0.109693
0.152886 0.196611 0.002953
0.184495 -0.171079 -0.345341
0.185291 -0.180789 -0.095328
-0.036393 -0.006116 0.002254
-0.056845 -0.046117 0.001894
0.079239 -0.136658 -0.013413
0.204341 0.082333 -0.016141
-0.181254 0.183996 0.314541
0.067497 -0.195646 0.004111
-0.127608 -0.162747 0.067285
-0.163072 0.078382 0.269532
-0.130066 0.162765 0.152317
-0.158704 -0.142432 0.300827
-0.132035 0.208541 0.168353
-0.042698 -0.185867 -0.000446
0.175978 0.005814 -0.001980
-0.118316 0.163744 0.017314
-0.123335 -0.055435 0.014803
-0.173638 0.038810 0.320692
-0.158959 -0.106389 0.294637
0.037646 -0.017070 -0.016126
-0.102105 0.196959 0.061182
-0.181191 0.128780 0.274375
0.187545 0.180360 -0.321628
-0.049778 0.180019 0.010362
0.175830 -0.033027 -0.031237
-0.148073 -0.114371 0.250707
-0.175256 0.168596 0.257100
0.186327 -0.166982 -0.265644
-0.067558 0.138874 0.007072
0.207093 -0.121329 -0.019198
-0.140783 0.117229 0.165964
0.152123 0.198335 0.008130
-0.177717 0.029586 0.211963
-0.170153 -0.144866 0.227456
-0.139684 -0.134147 0.085983
0.117372 -0.013904 -0.017835
-0.152596 -0.078145 0.235235
-0.135059 0.204277 0.158157
-0.165003 -0.048069 0.296809
0.026999 0.173384 -0.007567
0.098934 -0.145018 0.003918
-0.139000 -0.166295 0.266285
-0.148851 -0.083441 0.085080
-0.008761 -0.172865 -0.001690
-0.013359 -0.111788 -0.016151
-0.198924 0.085324 0.341676
0.079452 0.021576 0.002476
-0.089016 0.144267 -0.011170
-0.190106 0.079574 0.277357
0.071290 -0.114581 -0.015792
-0.093591 -0.157082 -0.052759
0.204038 0.163085 -0.114489
0.150993 0.087435 0.000570
-0.130173 0.171879 -0.302513
-0.193347 0.060204 0.294532
-0.159308 -0.053936 0.273644
-0.065696 0.190809 0.029373
0.089721 -0.176189 0.000780
-0.125182 -0.151868 0.106703
-0.133102 0.121733 0.099464
-0.120959 0.073459 0.012331
0.015392 -0.026049 0.001812
-0.184561 -0.013145 0.253710
-0.166061 0.088297 0.144307
-0.171606 -0.039848 0.159969
-0.125488 0.105668 0.000794
-0.141643 0.069873 0.142816
-0.148467 0.043550 0.173481
-0.035834 -0.052763 0.003375
0.004853 0.042692 -0.017067
0.148557 0.146970 0.001105
-0.129293 0.084047 0.056560
-0.125841 0.128488 0.016557
-0.174157 -0.099244 0.197691
0.201057 0.019554 -0.049476
-0.190322 -0.092357 0.298841
-0.157457 -0.188147 0.272095
0.145235 -0.127723 -0.019550
0.067561 0.198790 0.016700
-0.127032 0.165439 -0.163106
-0.121390 -0.164524 -0.183805
-0.018694 0.170277 -0.009498
-0.152976 0.157150 0.254259
0.008984 -0.000119 -0.016383
-0.158362 -0.163879 0.172770
0.114420 -0.130020 -0.007977
-0.032040 -0.010906 -0.013725
0.184274 -0.164356 -0.327077
-0.172160 0.054407 0.315915
-0.123110 -0.118595 0.088158
0.074560 -0.013728 -0.016162
-0.200055 0.005281 0.339080
-0.103523 -0.160598 -0.128100
0.205956 -0.120856 -0.012014
0.087682 0.073853 -0.019541
-0.166456 -0.131941 0.195003
-0.129829 0.205999 0.167270
-0.168624 -0.076623 0.130889
0.087570 0.048479 0.004324
-0.171019 0.093878 0.325322
-0.193493 0.040906 0.297430
-0.092893 -0.116129 -0.015968
-0.078732 -0.025687 -0.014856
0.205640 0.119653 -0.029255
-0.070272 0.034057 -0.019301
-0.104943 0.068448 0.006603
-0.058173 0.146202 -0.008551
-0.088386 0.087447 0.008283
-0.176562 0.073542 0.223261
-0.021962 -0.125087 -0.009164
-0.142489 -0.138637 0.240018
-0.158333 0.084822 0.257336
-0.155155 0.024112 0.237181
-0.156048 0.070867 0.232514
0.075844 0.090271 -0.021424
0.128304 -0.190475 0.005066
-0.091888 -0.065882 -0.015093
0.116267 -0.098283 0.006840
-0.202497 -0.026521 0.358770
-0.034276 0.098960 -0.027153
-0.145485 -0.116073 0.225289
0.177964 -0.088286 -0.037011
-0.073497 -0.147642 -0.023327
-0.153249 -0.101751 0.275205
-0.151958 -0.154219 0.294847
-0.157102 0.200387 0.274442
-0.016565 0.168299 0.003030
-0.120756 0.147256 0.035650
0.153521 0.147190 -0.022932
-0.169019 -0.087658 0.177759
0.124462 0.196903 0.011502
-0.191420 -0.139965 0.317159
-0.202911 0.049661 0.356853
-0.134617 -0.173186 -0.255030
-0.174916 0.075791 0.337349
-0.159301 0.008919 0.240950
-0.078024 0.151803 -0.034302
-0.196883 0.020854 0.388110
-0.036697 0.180611 0.009975
-0.163877 0.156226 0.180156
0.099958 0.193906 0.006770
-0.179702 -0.113020 0.251395
-0.125905 -0.169415 -0.278335
0.181602 -0.109345 -0.031457
-0.133253 0.190263 0.081055
-0.174444 -0.145510 0.344264
-0.145891 0.070122 0.185473
0.163980 -0.006819 0.000331
-0.143653 -0.178101 -0.374960
-0.145157 -0.076231 0.195483
-0.036809 -0.170305 0.005582
-0.148837 -0.088848 0.060065
-0.175705 0.061409 0.333128
-0.134666 0.080173 0.042615
0.119877 0.136058 0.002520
0.059752 -0.202233 0.001355
-0.163718 0.135827 0.298566
-0.133851 0.057563 0.033914
-0.166654 0.026766 0.276660
-0.165682 -0.149068 0.317174
-0.136670 -0.134702 0.176462
0.027174 -0.045030 0.005396
-0.196391 -0.136395 0.347691
-0.144645 0.063541 0.119829
-0.202656 0.096502 0.370969
0.188060 0.166234 -0.179958
-0.119307 -0.149322 0.084135
-0.042230 -0.129889 0.002250
-0.154954 0.056956 0.219924
-0.148006 -0.183757 0.169501
0.036933 0.170308 0.011383
0.134605 -0.084958 -0.023168
0.187896 0.171018 -0.162828
0.045670 -0.106121 0.005128
0.035349 -0.127719 -0.014106
-0.179762 0.108862 0.250609
0.140389 0.179042 -0.001380
-0.162169 0.007271 0.266881
-0.105853 0.159598 -0.001045
-0.011609 0.112167 -0.021650
0.084635 -0.005511 -0.015982
-0.133486 -0.121079 0.128933
-0.104741 0.132879 -0.001809
-0.117121 0.159867 0.018602
0.107769 0.200630 0.008368
-0.163722 0.203426 0.255732
-0.106116 -0.006961 0.003888
-0.141011 -0.089995 0.165050
0.158650 -0.110661 0.005521
-0.132279 -0.196173 0.209221
0.184453 -0.173586 -0.262321
-0.085459 0.123344 0.014437
-0.117967 0.106555 0.029731
-0.155073 0.143301 0.265250
0.210758 0.033539 -0.012065
0.151171 -0.146764 0.010461
-0.173786 -0.115539 0.354205
-0.180693 -0.128628 0.271649
-0.097655 0.155281 -0.015743
-0.149473 -0.098683 0.079165
-0.148412 0.120717 0.209690
-0.121739 0.161821 0.096948
-0.158678 -0.129382 0.153569
-0.062029 -0.188897 0.011170
-0.154721 -0.179853 0.292969
-0.183504 -0.113372 0.266152
0.125764 0.178968 -0.004228
0.189468 0.181980 -0.147754
-0.024814 0.055703 0.006118
-0.139580 -0.114164 0.185322
0.197746 0.163002 -0.063730
-0.172245 -0.117176 0.237007
-0.170025 0.076506 0.310704
-0.128825 -0.040355 0.030105
-0.193366 0.158162 0.362901
0.178153 -0.167786 -0.340409
0.014596 -0.119183 -0.014346
-0.177277 -0.081441 0.355323
-0.143834 0.065515 0.117220
-0.060435 -0.190290 0.009350
-0.161081 -0.035647 0.260169
-0.119351 0.006556 0.015543
0.151490 -0.033232 0.000408
-0.196360 0.087327 0.306034
-0.092210 -0.156994 -0.078245
0.087745 0.136227 0.005760
-0.127551 -0.179699 0.124443
0.052190 0.172884 0.011074
0.059200 -0.178633 -0.001299
-0.146753 -0.136856 0.256227
-0.149283 -0.135069 0.274995
-0.085991 0.156563 -0.024315
0.182918 0.131018 -0.032900
-0.163351 0.126157 0.145132
0.154308 0.134364 -0.025118
-0.004549 0.190424 0.014234
-0.110419 -0.136343 0.003955
-0.025022 0.177562 -0.001085
0.197026 -0.168099 -0.026984
0.034245 -0.073325 0.003964
0.121075 -0.130612 -0.018330
-0.132792 -0.171068 0.159812
-0.127942 0.069376 0.041386
-0.080257 -0.160792 -0.038927
-0.067769 -0.193054 0.009365
0.122178 -0.013544 0.001779
-0.163509 0.121583 0.292293
0.076576 -0.047984 0.000831
0.075452 -0.088452 0.004577
0.145751 -0.195036 0.001725
-0.162201 -0.038973 0.274378
-0.186002 -0.039003 0.253438
-0.205456 -0.043049 0.388680
0.185242 -0.174073 -0.245313
-0.195037 0.104357 0.324020
-0.113510 -0.160032 0.052194
-0.142018 0.169065 -0.313637
-0.048002 0.139509 0.006062
0.080672 -0.045293 -0.019071
-0.128484 -0.150138 0.055280
0.190796 -0.173148 -0.064654
-0.153122 0.070563 0.067179
-0.172986 -0.177077 0.306305
0.011917 -0.038649 -0.015463
-0.186996 0.101490 0.376928
-0.105703 0.159473 -0.119572
-0.004964 -0.037247 0.004003
-0.205588 -0.086311 0.376315
-0.174896 -0.042667 0.314005
-0.170752 0.133033 0.224388
-0.096390 -0.151048 -0.017512
-0.074363 -0.112574 -0.020309
-0.101947 0.158410 -0.063628
-0.151008 -0.017376 0.201228
0.101592 -0.122757 -0.018841
-0.124102 0.103639 0.044654
0.203526 0.005924 -0.007894
0.009303 -0.162719 -0.007730
-0.194069 -0.053118 0.303146
-0.125369 0.137897 0.098934
-0.154447 0.176577 -0.367241
-0.128628 0.122444 0.094658
-0.012319 -0.089272 0.006720
-0.180028 -0.133356 0.357237
0.031987 0.036069 0.002399
-0.133438 0.172304 0.164646
-0.188244 -0.126208 0.303817
0.149839 -0.057726 -0.021473
0.070547 0.201057 0.007830
-0.147236 0.173927 -0.342768
-0.199131 0.135054 0.353972
0.141502 0.053319 -0.021656
-0.130171 -0.077669 0.070220
-0.131898 -0.189967 0.129941
-0.169896 -0.155366 0.246571
-0.124071 0.024999 0.006992
0.183180 0.176174 -0.320781
0.147602 -0.023211 -0.019000
-0.150636 -0.031865 0.216085
-0.116358 0.166218 -0.168320
0.058324 0.198953 -0.002357
-0.145566 -0.074247 0.102601
-0.158041 0.090480 0.126135
-0.196901 0.043147 0.348088
-0.082120 0.117022 0.010936
-0.144118 -0.178293 -0.360560
-0.104701 -0.162004 -0.069829
-0.161377 -0.120698 0.308415
0.026043 -0.167478 -0.002281
-0.162694 -0.178846 0.240146
-0.203413 -0.076515 0.356949
-0.139332 -0.161634 0.233994
-0.120690 -0.164269 -0.224557
-0.149637 0.119594 0.093348
-0.151858 0.008650 0.163862
-0.177136 -0.010519 0.339060
-0.135853 0.086788 0.112482
-0.129223 -0.069464 0.034460
-0.161726 0.061753 0.102200
0.184265 -0.166296 -0.310807
-0.106620 0.017132 -0.009987
-0.097262 -0.164333 -0.029523
-0.145171 -0.074566 0.068750
0.213912 0.012188 -0.026371
0.089115 -0.027259 -0.020130
-0.176576 -0.163575 0.334301
-0.186714 0.043544 0.379254
0.024903 -0.187852 0.002302
-0.150256 -0.000892 0.199506
-0.118104 0.057734 0.017194
-0.113135 -0.037944 -0.001228
-0.151104 -0.025418 0.190181
-0.185974 -0.026844 0.244366
-0.136401 -0.129074 0.174820
0.164214 0.106844 -0.029194
-0.152281 0.096687 0.229108
0.066330 -0.116758 -0.016833
0.052328 0.182946 -0.003037
-0.107854 -0.164515 -0.109280
-0.161404 -0.162062 0.205594
-0.101084 -0.096789 0.000538
-0.010105 -0.146109 0.004255
0.130172 0.069392 -0.021198
0.007583 0.093962 0.006047
-0.140949 0.064694 0.038843
-0.151105 0.055185 0.191447
-0.166804 0.101735 0.182820
-0.121023 -0.156780 0.042364
0.180117 -0.170554 -0.275068
-0.134601 0.078583 0.072530
-0.061166 -0.044320 -0.014991
0.104533 -0.084609 0.004525
-0.172648 0.146604 0.220688
-0.198037 0.066691 0.318771
-0.103130 -0.156633 -0.173134
-0.168637 -0.027170 0.295540
0.120151 -0.005293 -0.017843
-0.155995 0.106145 0.246254
-0.103314 -0.012491 -0.008981
-0.155670 -0.172858 0.186650
-0.145705 0.196589 0.119722
-0.055353 0.067901 -0.020285
-0.101399 -0.036209 0.005490
0.187370 -0.178747 -0.172277
0.190353 -0.172389 -0.232396
0.075392 -0.121426 0.004341
-0.155513 0.153250 0.093908
-0.044425 -0.193579 0.008648
-0.187812 0.171680 0.322355
0.191054 0.178409 -0.235002
-0.055064 0.001401 0.000240
-0.148139 -0.050946 0.143130
-0.059118 -0.157604 -0.001920
-0.174986 -0.171563 0.280925
0.002779 0.138633 -0.014955
-0.167499 0.198181 0.305009
0.165953 -0.188933 -0.003643
0.043672 -0.155318 0.006712
-0.013845 -0.092148 -0.011808
0.195005 -0.172376 -0.072958
0.114891 0.120619 -0.018568
0.126823 -0.070342 0.001568
0.093391 0.015004 0.002337
-0.020016 -0.186531 -0.000662
-0.132962 0.130343 0.107678
-0.099063 -0.162459 -0.109199
-0.177768 0.089656 0.220526
0.009896 -0.091662 0.006464
-0.069548 0.030080 -0.018862
-0.171557 -0.071459 0.141719
-0.182261 -0.106138 0.250399
-0.183228 0.128621 0.371152
-0.086939 0.181660 0.031158
-0.042751 0.048821 -0.020364
-0.116780 0.168939 -0.219936
-0.097019 0.154398 -0.043296
-0.126774 0.163774 -0.250251
-0.159396 0.183772 0.174447
-0.134711 -0.104425 0.117266
-0.208960 -0.062096 0.369332
-0.002704 -0.049560 -0.013100
0.011197 0.127309 0.008232
0.197582 0.163797 -0.081994
0.155986 0.165704 0.004879
-0.133009 -0.029676 0.022932
-0.151584 -0.126579 0.281430
0.083576 0.156430 0.006553
-0.124765 0.195981 0.086858
0.211213 0.039766 -0.045405
-0.133833 0.077732 0.038042
-0.185243 0.164431 0.340037
-0.094001 0.149857 -0.059452
-0.130560 -0.097227 0.100945
-0.164722 0.159284 0.311297
0.135541 -0.190290 0.007502
-0.159539 0.069804 0.091652
-0.178473 0.107382 0.248109
-0.165127 0.177328 0.303076
-0.154420 0.178561 -0.387073
0.148296 -0.097137 -0.029386
-0.162567 0.090170 0.282035
-0.135920 0.101934 0.085721
-0.122285 0.202656 0.105642
-0.174531 0.190850 0.286562
0.069530 -0.186331 0.004464
0.113043 -0.123323 0.008623
0.193923 0.092734 -0.037659
0.198610 0.161311 -0.082841
-0.031818 -0.192782 0.001426
-0.129168 -0.091374 0.067506
-0.209770 -0.004833 0.379713
0.194907 -0.168852 -0.031726
0.176696 -0.167594 -0.383097
-0.167104 -0.145122 0.204486
-0.144253 -0.099326 0.200096
-0.144631 -0.177528 -0.352947
-0.141224 -0.187107 0.264027
-0.180144 -0.127024 0.252283
-0.153476 0.208426 0.245020
-0.161994 0.137399 0.282127
-0.189193 -0.062573 0.279180
0.098963 -0.079106 -0.018415
0.200376 0.047925 -0.007233
-0.148263 0.007691 0.189997
-0.116800 -0.161777 -0.135841
-0.192942 -0.003522 0.286755
-0.116200 -0.085552 0.014766
-0.134661 0.171507 -0.312190
-0.072508 0.055080 -0.018367
0.131850 -0.122475 -0.018124
-0.116218 0.148904 0.006432
0.098302 -0.191162 -0.001520
-0.015173 0.060435 -0.021960
-0.081506 0.185334 0.023637
-0.134375 -0.169244 -0.261468
0.184292 0.176619 -0.022837
0.191420 -0.088017 -0.002980
-0.131357 -0.175047 0.087329
-0.162988 0.173398 0.141579
-0.114884 0.191781 0.066027
-0.178685 0.178281 0.281235
0.121870 -0.031150 -0.000805
-0.175423 -0.064938 0.145210
-0.173866 -0.034793 0.181214
-0.094351 0.049794 0.001923
0.126272 0.145908 -0.016178
-0.006433 0.117313 0.007823
-0.126603 -0.054238 0.041939
0.081699 0.160460 -0.011757
-0.136935 -0.089546 0.031053
0.196959 -0.048946 -0.006342
0.014854 0.019915 0.006864
0.006438 -0.058828 -0.014527
-0.161018 -0.081018 0.291102
-0.158628 0.119777 0.114686
0.116852 0.197810 0.006696
-0.094168 -0.162242 -0.084686
-0.174008 -0.100309 0.213776
-0.048502 -0.028808 0.003491
-0.141810 0.100785 0.154631
-0.164008 -0.100649 0.162619
-0.131055 -0.096010 0.023525
-0.137354 -0.112412 0.049590
-0.081769 -0.077940 -0.014159
-0.190729 0.135892 0.313377
0.002809 -0.088995 -0.009755
-0.173866 0.113295 0.350928
-0.145540 0.086989 0.187482
-0.161756 0.188710 0.199693
0.113696 -0.195065 0.005402
0.133981 -0.110034 0.007668
0.185503 0.177414 -0.362727
-0.185234 0.086005 0.263259
0.076879 -0.111503 0.005966
-0.138799 0.210176 0.211530
-0.173164 -0.161613 0.277795
-0.119588 -0.173898 0.100782
-0.151615 -0.004313 0.162180
0.136993 -0.195087 0.003180
0.115772 0.043742 0.001600
0.098404 -0.109913 -0.019868
-0.176161 -0.030302 0.334502
-0.048063 -0.090949 -0.000655
0.186109 0.177945 -0.295419
-0.110217 0.042248 0.003062
-0.186843 -0.089941 0.260152
-0.207190 -0.092268 0.367690
-0.050370 0.097792 0.005644
-0.170613 0.046387 0.192621
0.039050 0.191362 0.012698
0.025533 -0.151670 0.008564
-0.133985 -0.171740 -0.323822
-0.177471 0.002131 0.202887
-0.116835 -0.110538 0.018873
-0.198118 0.112944 0.354914
-0.087139 -0.166479 -0.040269
0.037851 0.188688 0.002617
-0.004708 -0.062329 -0.019871
-0.157325 -0.151927 0.139599
-0.093383 0.159694 -0.085127
-0.152121 0.049853 0.207394
-0.147489 -0.196704 0.223665
-0.146263 0.153020 0.235786
-0.146117 0.171824 -0.332131
-0.118840 -0.160699 -0.167808
-0.196742 -0.066178 0.313023
-0.133072 0.208413 0.135621
0.193831 0.169392 -0.143631
-0.133099 0.193252 0.139794
0.190939 0.178399 -0.253222
0.187160 -0.165233 -0.041631
-0.012191 0.069729 0.004507
0.052762 0.112793 0.007860
-0.143565 0.142303 0.217862
-0.158940 -0.179224 0.217509
-0.169170 0.011747 0.286918
-0.157168 -0.143305 0.145778
0.042259 0.193266 0.003414
0.063964 -0.145259 0.004060
-0.140834 0.070874 0.096616
-0.182537 -0.002349 0.225110
0.067550 0.002231 -0.016354
-0.154164 0.016210 0.160196
0.015681 0.092735 -0.021637
-0.197393 0.082099 0.321855
-0.171352 0.194021 0.281207
0.016833 -0.061662 0.006309
-0.164944 0.185154 0.237963
0.192064 0.173382 -0.035169
0.127466 -0.144955 0.007654
-0.183975 0.144940 0.360371
-0.073000 0.154534 -0.019013
-0.138841 -0.185374 0.142295
-0.054873 0.010923 -0.018655
0.093859 0.002659 -0.016977
-0.187409 0.052524 0.261913
0.083765 0.085159 0.003899
-0.144301 -0.159271 0.271456
-0.202991 -0.006781 0.348356
-0.125433 0.153059 0.053586
-0.135033 -0.197201 0.186420
0.182019 0.197233 0.006869
-0.163695 0.024917 0.169987
-0.142002 0.087746 0.159113
-0.157599 -0.011157 0.233703
-0.153076 0.170438 0.286699
-0.182534 0.019122 0.356378
-0.003374 -0.189263 -0.001704
-0.157948 0.016544 0.237509
0.051783 0.013119 0.001132
0.072340 -0.159187 -0.007187
-0.194016 0.149545 0.356332
0.136958 0.084913 0.001702
-0.177915 -0.016263 0.194406
0.014871 -0.193419 0.003143
0.186417 -0.015454 -0.041507
-0.148770 -0.178595 0.157984
-0.142181 0.162330 0.216300
-0.114234 -0.127995 0.041228
-0.163645 0.202252 0.230725
0.038079 -0.155749 -0.013490
-0.108187 -0.068681 -0.007125
-0.114374 0.184326 0.074421
-0.066937 0.170366 -0.003085
-0.108834 0.146689 -0.001940
-0.148200 -0.018287 0.171836
-0.181233 0.013282 0.353668
0.159776 -0.162667 0.008424
0.027990 -0.196332 0.003889
-0.177716 0.034116 0.159009
-0.144543 0.107790 0.072250
-0.214955 0.022113 0.393458
0.195220 -0.170575 -0.083818
-0.192138 -0.092747 0.282000
-0.162040 -0.091731 0.114148
-0.159655 -0.082417 0.110441
-0.138914 -0.184179 0.254686
-0.167213 -0.074956 0.154998
0.107482 0.188500 -0.003888
0.186106 0.176079 -0.356336
0.189506 0.168850 -0.000979
0.153846 -0.078979 0.005804
0.191180 0.119912 -0.033292
-0.126052 -0.079744 0.046564
0.112165 0.139093 0.004848
-0.189428 -0.110597 0.291764
-0.153154 -0.128860 0.117527
0.192079 0.120908 -0.004734
-0.141360 -0.135015 0.210096
-0.153008 0.209955 0.225345
0.049286 -0.189480 0.002360
0.002407 0.169982 -0.008181
0.060997 -0.032405 -0.018608
0.207380 0.094382 -0.037512
-0.176475 -0.027573 0.322075
-0.008632 0.121874 -0.016332
-0.105334 -0.157384 -0.011485
0.183634 -0.171373 -0.355634
0.146385 -0.172533 -0.014724
-0.127882 0.190743 0.111695
-0.143474 0.065512 0.093968
-0.151125 -0.058977 0.224410
-0.120240 -0.175190 0.099936
0.075378 0.194764 0.003394
0.017705 0.110034 -0.017040
-0.196318 -0.017138 0.386139
0.137771 0.003912 -0.018801
0.150112 -0.186165 0.002167
-0.170009 -0.023459 0.165556
-0.126056 -0.192178 0.155363
-0.023406 -0.123840 0.006423
-0.144872 0.196467 0.240004
0.009105 0.190919 0.014570
-0.137282 -0.174031 -0.334127
-0.110837 -0.174835 0.065137
-0.162634 -0.107090 0.316444
-0.151173 0.212146 0.232691
-0.177562 -0.011914 0.175580
-0.083409 -0.124229 -0.003374
-0.088661 0.089906 -0.014521
0.068172 0.167620 0.005670
0.091546 -0.169587 -0.008690
-0.152131 -0.112630 0.271039
-0.148882 -0.103999 0.236349
-0.097843 -0.159067 -0.130388
0.066190 -0.020716 0.001776
-0.175427 -0.100239 0.228038
-0.180711 0.099971 0.258115
-0.151523 -0.041744 0.229579
0.020861 -0.054646 -0.015180
-0.131290 0.165130 -0.229842
-0.038059 -0.037352 -0.020790
-0.188400 0.069459 0.376851
-0.141243 0.170269 -0.323054
-0.195513 0.118488 0.329042
0.210335 -0.086470 -0.031260
-0.127709 0.085836 0.026143
0.054086 -0.052644 0.003766
-0.172265 0.052793 0.171046
-0.145301 -0.195532 0.241275
-0.082242 0.077953 0.006727
-0.121229 -0.093777 0.013684
0.011299 0.155493 -0.013184
0.206574 -0.165709 -0.000692
-0.077405 0.158619 0.008061
0.204439 0.164460 -0.086149
-0.133948 -0.199588 0.189761
0.183663 0.167820 -0.215869
0.186998 -0.174307 -0.216960
-0.172772 0.038286 0.166750
0.073195 0.131564 0.009304
-0.120899 -0.178023 0.057915
-0.066835 0.056080 -0.024138
-0.178123 0.009451 0.178304
-0.014443 -0.100731 0.003015
0.026188 0.134571 0.009923
-0.161196 0.070935 0.133060
0.081238 -0.007589 -0.001700
-0.193650 0.117972 0.314505
0.138426 -0.051257 0.002388
-0.139461 -0.110516 0.060642
0.086474 -0.052851 -0.018456
0.032534 0.175601 -0.006533
-0.187530 -0.161765 0.324182
0.147692 -0.025189 0.000189
-0.168609 0.091335 0.312178
0.188817 -0.174064 -0.172577
-0.195860 -0.117177 0.353145
-0.154286 -0.124906 0.137562
-0.094211 0.028795 -0.013765
-0.123347 -0.155171 0.114045
-0.162890 -0.149719 0.185199
-0.149605 0.112747 0.212823
-0.178510 0.049208 0.357697
-0.152768 0.189249 0.143347
-0.150601 -0.026944 0.236244
0.099948 -0.152719 -0.008698
0.180539 -0.065744 -0.033416
-0.093193 -0.171569 0.017207
-0.143733 0.138750 0.071791
-0.144912 0.138787 0.227818
-0.165963 0.078148 0.293588
-0.157416 0.118054 0.271344
-0.135982 -0.175869 -0.307027
-0.002662 -0.188812 0.006868
0.210061 -0.014224 -0.024335
0.209449 0.111766 -0.028976
-0.174063 0.105611 0.204429
-0.108033 -0.167707 0.025191
-0.149407 -0.065962 0.184953
-0.100125 0.056915 -0.012742
-0.104409 -0.135672 0.031723
-0.101203 0.078499 0.018473
-0.189522 -0.031265 0.269479
-0.173807 -0.029623 0.164798
-0.093340 -0.133398 0.006847
-0.128478 -0.175656 0.173953
0.082968 0.037068 -0.016741
-0.148275 -0.161190 0.119403
0.184030 0.166730 -0.175566
-0.190012 -0.082125 0.274939
-0.190597 -0.112703 0.306867
-0.179823 0.126563 0.255996
0.039718 -0.118109 0.007875
-0.163241 0.094753 0.289933
0.191256 0.158135 -0.129607
-0.149510 -0.023939 0.163174
-0.144069 -0.058838 0.161606
0.094002 0.127486 0.010546
0.123582 -0.038585 0.000808
-0.036347 0.039784 -0.019899
0.197569 -0.175702 -0.147790
-0.048015 0.027786 -0.018759
0.015280 -0.016078 -0.017131
0.156122 0.181009 -0.004999
-0.164418 0.091467 0.159487
0.056210 -0.072556 0.004116
-0.149400 -0.172835 0.140884
-0.157937 0.067391 0.092407
0.058222 -0.106013 0.004762
0.124517 0.171462 -0.009751
0.192983 -0.063340 -0.034721
-0.090640 -0.147244 -0.016784
-0.148996 0.177721 0.263194
-0.029108 0.128439 -0.017029
-0.030881 0.188586 0.017476
-0.096744 -0.167445 0.002904
-0.178634 0.134922 0.241207
-0.088479 -0.012479 -0.018991
0.191629 0.174985 -0.206778
-0.141764 0.198030 0.132538
0.179647 -0.128409 0.004717
-0.013222 -0.052887 0.006146
0.169901 -0.134569 -0.023651
-0.014694 -0.124724 0.005375
-0.100023 -0.164850 0.022750
-0.128376 -0.120424 0.082137
-0.126550 0.166672 -0.208789
-0.129179 0.146144 0.115678
-0.165757 -0.166762 0.328720
-0.171071 -0.179535 0.289312
0.047749 -0.086855 -0.013636
0.069404 -0.040837 0.002943
-0.158462 0.198882 0.208182
-0.037484 0.062456 0.001615
-0.188757 -0.121794 0.368365
0.193219 -0.171315 -0.061534
-0.123230 0.165936 -0.262460
-0.109791 0.158722 -0.094152
-0.050713 -0.103494 -0.021280
-0.201773 -0.003735 0.392705
-0.135522 0.122960 0.134300
-0.177969 0.058493 0.346322
0.044988 -0.126230 0.003914
-0.181085 -0.019342 0.228165
-0.033719 0.073366 -0.019415
-0.145409 0.175773 -0.354242
-0.111199 -0.160903 -0.164590
-0.128763 0.160458 0.116768
-0.192112 0.124720 0.345377
-0.080002 0.191124 0.040560
0.161659 0.173908 -0.016449
0.001986 0.187830 0.005643
-0.147511 -0.109039 0.101666
-0.139265 0.179070 0.205874
0.214447 -0.078369 -0.021498
-0.083044 0.157311 0.003013
-0.125303 -0.112713 0.020076
-0.161003 0.156872 0.140100
-0.015332 -0.024377 0.003930
-0.177309 0.013576 0.344585
-0.002454 -0.193633 0.001031
-0.178081 -0.082026 0.209134
0.192962 0.171741 -0.176359
0.163726 -0.122755 0.004313
0.190571 0.137214 -0.028068
0.000528 0.073865 -0.018731
-0.175196 -0.131163 0.231816
-0.163940 0.196753 0.286848
0.133200 -0.183668 -0.008398
-0.099730 0.182874 0.035942
0.178544 -0.166733 -0.334939
-0.136405 0.158329 0.173762
0.166417 -0.171345 -0.380899
-0.051568 -0.027251 -0.019211
-0.070020 -0.000603 -0.018250
-0.132112 -0.172137 -0.313260
0.116863 -0.171929 0.002770
0.008780 -0.075878 0.005794
0.058783 -0.009625 0.001701
-0.167282 0.140981 0.191690
0.201423 0.159421 -0.071295
-0.169195 -0.171073 0.259059
0.109906 -0.007700 -0.003217
-0.003089 -0.009390 -0.016169
-0.197923 -0.112143 0.373917
-0.064178 0.176303 0.014668
-0.043946 0.188736 0.022395
-0.192252 -0.143736 0.356739
-0.116288 -0.138698 0.024300
-0.139301 -0.171889 -0.337295
-0.138196 -0.168528 0.218087
0.104652 0.179646 0.000887
-0.104298 0.105982 -0.008793
-0.155231 0.173123 -0.380376
-0.169593 -0.116574 0.206988
-0.141676 0.150604 0.202429
-0.121931 -0.175567 0.143326
-0.105983 -0.094616 -0.007747
-0.124593 -0.141956 0.098840
0.013390 0.109281 0.010137
-0.163928 -0.135789 0.176162
0.192872 -0.177845 -0.134236
0.060203 -0.187967 0.008194
-0.141474 -0.086647 0.039322
0.191619 -0.176023 -0.126977
-0.092446 0.090913 -0.016661
-0.128385 0.028700 0.030150
0.166292 -0.190214 0.001778
-0.123203 -0.109115 0.037133
0.037043 0.029671 0.001642
-0.005487 0.190463 0.011912
-0.147606 -0.179457 -0.348889
-0.187674 -0.049105 0.276671
-0.123652 -0.165196 -0.205020
-0.207019 0.089471 0.379763
-0.052530 0.118008 -0.020339
-0.133828 0.169117 -0.252660
0.179733 -0.154612 -0.021824
-0.078391 -0.128462 -0.001214
0.151104 0.176541 -0.016328
-0.166157 0.138868 0.154994
-0.173627 0.059775 0.194146
-0.013213 0.084508 -0.021236
0.185879 0.176379 -0.229730
0.086541 0.205084 0.012880
-0.051438 0.095791 -0.022227
-0.091546 -0.145853 -0.047697
0.204734 0.170331 -0.007943
0.069629 0.073267 -0.021769
-0.155722 0.083333 0.236965
-0.139028 0.174187 -0.322888
-0.188958 -0.148847 0.326723
-0.004522 0.008908 0.001657
-0.174506 -0.067345 0.190924
-0.158676 -0.191993 0.241206
0.101377 0.163572 0.003755
-0.160573 -0.110205 0.122909
0.093481 -0.085395 0.004996
-0.184454 -0.143721 0.354782
-0.130649 -0.108291 0.093373
-0.171299 -0.131774 0.223529
0.126360 -0.170048 -0.009840
0.185242 -0.171662 -0.282000
0.118377 0.126398 -0.021941
0.086986 -0.196721 0.007728
-0.169363 -0.105924 0.175338
0.212479 0.028907 -0.040179
-0.133874 0.105554 0.103312
0.112559 0.087443 0.004918
-0.165309 0.122480 0.309338
-0.114017 -0.160948 -0.193962
-0.162674 0.189765 0.213901
-0.195687 -0.110009 0.330665
-0.139119 -0.081815 0.114963
0.209418 -0.100653 -0.015780
-0.069634 -0.193194 0.004836
-0.153713 -0.166555 0.303943
0.191007 -0.042834 -0.036701
-0.103136 -0.053240 0.008217
-0.136464 0.100677 0.124863
-0.178164 -0.027065 0.341635
-0.162200 -0.018641 0.269477
-0.195864 -0.019782 0.303811
-0.153159 0.159321 0.265026
-0.164353 0.163839 0.205630
-0.086839 -0.110014 -0.000001
-0.128702 0.107556 0.053640
0.198192 -0.026577 -0.045670
-0.021743 -0.163080 0.006630
-0.209113 -0.064859 0.386203
-0.129652 -0.192453 0.156044
0.183714 -0.180129 -0.199746
0.208552 0.042988 -0.018023
-0.009879 0.146559 0.000426
-0.163161 0.073695 0.124204
-0.136496 -0.189178 0.144002
-0.101347 -0.104433 -0.007164
0.181515 0.161896 -0.030920
-0.132935 0.206371 0.154206
-0.173291 0.181734 0.321696
-0.032017 0.101087 -0.017888
0.188037 -0.173962 -0.045504
-0.110899 0.142400 -0.008879
-0.118895 0.056316 0.000677
0.041821 0.190991 0.011205
-0.045885 0.153761 -0.021255
-0.191797 0.112030 0.301748
-0.129771 -0.169463 -0.301327
-0.162964 -0.085316 0.302166
0.191865 -0.166449 -0.235369
-0.149528 0.070391 0.214539
0.052623 0.137117 0.009493
0.171480 0.114466 -0.001955
0.059660 0.036389 0.003928
-0.134387 -0.180673 0.239393
-0.163570 -0.149778 0.193193
-0.127222 -0.148649 0.058960
0.022899 -0.193079 0.005038
0.100042 0.112830 0.004684
0.091903 -0.109670 -0.016599
-0.096445 -0.159657 -0.061670
-0.042867 -0.136154 -0.012010
0.198435 -0.190320 -0.008101
0.125805 0.069483 0.002740
0.079764 0.006272 0.002610
-0.173641 0.088684 0.201581
0.054681 0.195405 0.002802
0.147512 0.066201 -0.000602
-0.168515 0.124100 0.187165
0.009800 0.104229 -0.014065
-0.166765 0.103847 0.301938
-0.141573 0.137340 0.195851
-0.178852 -0.028458 0.210798
-0.004935 0.059343 0.004482
0.019755 -0.175081 0.008409
-0.067851 0.141275 -0.021338
-0.161271 0.103473 0.138531
-0.193707 0.038344 0.285253
-0.136597 -0.150215 0.195758
-0.137841 0.068239 0.039331
0.105465 -0.066341 0.002748
-0.157788 0.041404 0.159596
-0.023925 -0.185833 0.006705
-0.124520 0.137299 0.105799
-0.202081 -0.020024 0.330400
-0.097079 -0.120662 0.007973
-0.139884 0.174857 -0.338980
-0.020833 -0.059533 -0.013175
-0.161050 0.093801 0.111754
-0.148474 0.065981 0.054101
0.038551 0.002086 0.001980
-0.131642 -0.166839 -0.240411
0.195101 0.158469 -0.104323
0.090464 -0.130862 -0.016528
-0.147997 -0.043512 0.202620
0.128728 0.206799 0.017238
-0.100921 -0.166171 -0.061683
-0.126140 0.165858 -0.245143
0.204726 -0.139686 -0.006007
-0.142805 -0.094444 0.058127
-0.173264 -0.028030 0.161068
0.007873 0.048982 0.004928
0.025897 0.020144 -0.015695
0.188951 0.176027 -0.280802
-0.187741 -0.131762 0.296969
-0.163000 -0.005780 0.263403
-0.128480 0.194452 0.150092
-0.192103 -0.071832 0.379687
-0.079368 0.105215 0.011136
-0.173870 0.144289 0.345373
-0.129954 0.204677 0.123333
0.181451 -0.111589 0.003255
-0.159297 0.071853 0.161570
-0.146384 -0.188071 0.257532
-0.202550 -0.037929 0.327589
-0.169833 -0.039674 0.164862
-0.120650 -0.176809 0.081435
0.189972 -0.183908 -0.024935
0.188081 -0.174520 -0.222035
-0.141713 -0.191196 0.155599
-0.042202 0.072953 -0.026519
-0.121219 0.115609 0.047880
0.124068 -0.098329 -0.023173
-0.057068 -0.018888 0.004208
-0.171275 -0.021541 0.309922
-0.168464 -0.157679 0.237058
-0.105365 0.157537 -0.081704
0.101286 -0.146198 -0.011248
0.023383 -0.113165 0.009043
0.060118 0.166628 -0.011109
-0.203714 0.065728 0.384884
-0.006891 -0.024806 -0.015584
0.096232 0.019633 -0.001748
0.016975 0.160998 0.008860
-0.136966 0.033959 0.025916
-0.208827 -0.020490 0.398238
-0.110057 -0.069304 0.000018
-0.135395 -0.151386 0.085922
-0.154195 -0.021682 0.244057
-0.186239 0.113371 0.380895
-0.092429 -0.055401 -0.013926
0.136669 -0.149793 -0.016773
-0.191399 -0.072527 0.291812
-0.152450 0.062291 0.132291
-0.132676 -0.131133 0.142542
0.202050 0.163723 -0.093741
0.196726 0.134738 -0.027743
-0.196443 0.008064 0.317367
-0.183452 -0.150043 0.299870
-0.177313 -0.158690 0.288782
0.013238 0.182851 -0.001954
0.204179 -0.004204 -0.045609
0.095372 0.078279 0.005012
0.115226 0.138670 -0.017228
0.008512 -0.162787 0.007640
0.038228 0.051800 -0.020888
-0.124579 0.169910 -0.276358
0.186589 -0.170938 -0.306276
0.095094 -0.191489 0.005584
0.172629 0.007879 -0.035172
0.105367 -0.060221 -0.017223
-0.170020 0.049890 0.147653
-0.112057 0.159790 -0.149621
-0.045616 0.077137 0.005744
0.176901 0.198875 -0.002165
-0.180386 0.037264 0.237347
-0.172000 -0.154066 0.339730
0.190813 -0.143969 0.002771
-0.198684 -0.083402 0.333338
0.072636 -0.147615 0.003298
0.173765 0.078881 -0.035450
0.133127 0.106023 0.003004
0.191060 -0.179102 -0.166352
-0.134573 -0.109933 0.146128
0.105892 0.076261 -0.019202
0.209377 0.100904 -0.024806
-0.076255 0.083616 -0.020857
0.082005 0.188242 -0.004673
-0.174635 -0.046788 0.328937
0.160484 -0.129486 -0.022356
0.191103 0.164551 -0.151831
-0.026295 0.124810 0.006827
-0.200564 -0.046053 0.334521
-0.114882 -0.160432 -0.182078
0.030247 0.192633 0.006015
0.172622 0.177596 -0.324524
-0.144321 -0.107511 0.212372
-0.209636 0.066184 0.379857
-0.016429 0.181987 0.011735
-0.125643 -0.112096 0.015616
-0.189935 0.125806 0.300579
-0.052071 0.169059 -0.006144
-0.163872 0.148426 0.151379
0.167110 -0.011653 -0.028396
0.129883 -0.046097 -0.020545
-0.159904 0.196165 0.299068
-0.103697 -0.164714 -0.092409
-0.103011 -0.032507 -0.010536
-0.155852 -0.183600 0.225440
0.195660 -0.078215 -0.036785
-0.187078 0.096723 0.275584
0.164704 0.065481 -0.031244
0.184543 0.163588 -0.028001
-0.111260 0.163770 -0.171020
-0.117969 -0.159425 -0.181900
-0.008331 -0.149117 -0.008712
-0.137862 0.174522 -0.336953
0.139762 0.051633 0.001446
0.188241 -0.174507 -0.059183
0.191436 0.023758 -0.002224
-0.140000 -0.075786 0.147134
0.176251 -0.166176 -0.019957
-0.031325 -0.042117 -0.014098
-0.158873 0.074997 0.110579
-0.177219 0.029642 0.172137
-0.105346 0.164142 -0.139099
-0.178640 -0.166676 0.301300
0.106649 -0.194712 0.007501
-0.167442 0.058435 0.134386
0.100408 -0.195419 0.006882
-0.093888 0.157440 -0.064181
-0.064705 0.190938 0.034366
-0.173068 0.059520 0.173787
-0.036189 0.083752 0.005264
0.149559 0.194979 -0.001544
-0.118952 -0.167505 0.034121
-0.013504 0.154763 -0.012349
-0.136182 0.116724 0.059247
0.051673 0.153285 -0.013741
0.204185 0.135656 -0.008103
0.190430 -0.170105 -0.264831
-0.034758 -0.146345 -0.008692
0.046704 0.142630 -0.015167
0.101361 -0.017239 -0.016499
-0.135959 0.095493 0.056480
-0.009038 -0.011211 0.004315
-0.126382 -0.086094 0.016070
-0.177832 0.003922 0.163257
-0.150896 -0.077482 0.218799
-0.126262 -0.165667 -0.269315
0.190861 -0.177406 -0.127829
0.006613 0.092037 -0.016288
0.011203 -0.136552 0.006508
-0.209343 0.051036 0.394598
-0.142104 0.162679 0.079656
-0.125034 -0.164780 0.150475
-0.174127 -0.056811 0.197573
-0.161327 -0.181445 0.286559
-0.206078 0.034498 0.387258
-0.154420 0.198348 0.205443
-0.192066 -0.149823 0.338123
-0.142102 -0.098318 0.193791
0.206531 -0.100635 -0.008240
-0.185572 -0.168053 0.321107
-0.122814 0.173863 -0.235723
0.192891 -0.169323 -0.045599
0.196886 -0.174895 -0.177604
-0.095810 0.154193 -0.024682
-0.174198 0.200340 0.303256
0.092867 0.096023 0.004889
-0.063089 -0.065941 -0.013464
-0.146268 -0.178752 -0.353955
-0.194724 -0.041327 0.384960
-0.150887 0.019182 0.204561
-0.196891 0.056771 0.313865
0.035524 0.100694 -0.017228
-0.194967 -0.098890 0.322349
-0.196378 -0.076831 0.321338
0.085390 -0.031616 0.002702
0.178494 -0.180596 -0.016389
-0.196866 0.130249 0.368122
-0.166844 0.056355 0.125140
-0.182508 -0.042162 0.235978
-0.145786 0.070171 0.171665
0.188175 0.061179 -0.002080
-0.175452 0.114690 0.214982
-0.104973 0.112358 -0.002237
-0.129748 0.180793 0.057695
0.206404 -0.084404 -0.010804
-0.144319 -0.172840 -0.323094
0.125634 0.093083 0.003717
-0.163447 -0.132987 0.322691
-0.070312 0.054654 0.005099
0.008615 -0.187566 0.006231
-0.053422 -0.154683 0.007474
0.061247 -0.094263 0.004968
-0.184836 0.073866 0.252404
0.001143 -0.193596 0.005656
-0.154237 -0.124518 0.137399
-0.202639 -0.036965 0.365629
-0.188496 0.145938 0.318529
0.156768 -0.111305 -0.022815
-0.125839 0.194386 0.075350
-0.154507 0.129626 0.098153
-0.095798 -0.155401 -0.037718
0.024579 -0.124382 -0.016305
-0.144216 -0.086211 0.174642
0.012672 0.064545 0.004769
-0.199473 -0.008993 0.328563
0.002613 -0.006024 0.003411
-0.047444 -0.003075 -0.017319
-0.171689 0.011523 0.166345
0.178042 0.174326 -0.370438
-0.151543 -0.141954 0.278987
-0.122811 0.170394 -0.251725
0.192972 -0.173817 -0.095637
-0.190002 0.052955 0.272774
0.206948 0.138179 -0.018987
-0.123317 -0.165520 -0.231357
0.047740 -0.160877 -0.009202
0.189690 -0.176878 -0.189505
-0.177572 0.000350 0.324492
0.119449 -0.105531 -0.018605
-0.081467 -0.165285 -0.009387
-0.183250 -0.036040 0.375425
-0.136836 -0.122761 0.056618
-0.182454 -0.103782 0.270431
-0.147779 0.131442 0.088259
-0.047146 0.036006 0.002842
-0.186569 0.033008 0.252599
-0.008106 0.031089 -0.017424
-0.130224 -0.154561 0.171694
-0.172498 0.130628 0.337778
0.182593 -0.195330 -0.013600
-0.103775 0.134783 0.030124
0.174287 -0.050828 -0.027839
-0.122703 -0.113498 0.025176
-0.136503 -0.087191 0.107983
-0.108736 -0.116556 -0.000248
-0.056502 -0.074348 0.001233
0.129244 -0.140120 0.007174
0.013858 0.187023 0.014602
0.055484 -0.167422 0.006652
0.113027 -0.114176 -0.022075
-0.132794 0.132305 0.117894
-0.131136 0.122525 0.151925
0.000070 0.155657 0.008711
0.205628 0.166446 -0.082701
-0.177010 0.159194 0.274882
-0.170496 0.055657 0.133452
-0.092868 -0.157243 -0.101171
0.110493 0.110838 0.003591
-0.162958 0.142469 0.161935
-0.173648 0.058165 0.206452
-0.156321 0.099971 0.099226
-0.174370 0.038808 0.337050
-0.180134 0.075603 0.363753
-0.158911 -0.112063 0.138448
-0.170027 -0.079219 0.317733
-0.096227 -0.001866 -0.016108
-0.138933 0.135914 0.173175
0.206973 0.071037 -0.041752
-0.175027 0.042599 0.190187
-0.128021 -0.185876 0.192486
0.087269 -0.101387 0.006079
-0.175401 -0.067708 0.340068
-0.118266 0.176939 0.108011
-0.024971 -0.195144 0.007256
0.176414 -0.167622 -0.371131
-0.136844 -0.124165 0.156130
-0.135034 -0.171892 0.109525
-0.155371 -0.058821 0.261447
-0.127043 0.062257 0.025642
-0.197327 -0.052250 0.320446
-0.208170 0.007585 0.373421
-0.162949 -0.091717 0.148070
-0.157422 -0.003319 0.164956
-0.143570 0.115856 0.179377
-0.170159 0.082544 0.179611
-0.175742 -0.059582 0.337542
-0.155155 -0.127307 0.292368
0.045327 0.034724 -0.018209
-0.120460 0.172239 0.036777
-0.118202 -0.133693 0.019240
-0.176280 0.103055 0.226955
-0.128185 -0.177633 0.146413
0.184886 0.160934 -0.047308
-0.024232 0.160079 0.006109
-0.168854 -0.187257 0.264490
-0.137800 -0.174948 0.110981
0.111424 0.179485 -0.007702
0.205202 0.161920 -0.067077
0.190883 0.160670 -0.049468
-0.145739 0.183871 0.103040
-0.126215 0.167673 -0.288462
-0.050023 0.188339 0.024114
0.202413 0.052163 -0.044086
-0.105783 -0.070115 0.009391
-0.149183 0.057097 0.136311
-0.142222 -0.121753 0.203913
0.212781 0.099896 -0.025198
-0.140919 -0.174203 -0.336632
0.158469 0.152343 0.004405
-0.080521 -0.147375 -0.006425
-0.192373 0.136325 0.329931
-0.179717 -0.011667 0.209747
-0.181157 0.121672 0.376313
-0.017485 0.147864 0.010341
0.190865 -0.177278 -0.182280
0.050476 0.124564 0.007709
-0.153527 0.137839 0.261343
-0.081627 0.036334 -0.000515
-0.154177 0.146071 0.136697
-0.146116 0.067333 0.113696
-0.152680 -0.167223 0.300298
-0.046402 0.187976 0.020518
-0.177016 0.045184 0.333570
-0.124422 0.013442 0.011480
-0.132026 0.005545 0.021090
-0.002210 0.194586 0.010672
-0.108656 0.010523 -0.010029
-0.188872 -0.050865 0.376048
0.095897 0.057214 -0.021252
0.158869 0.126481 -0.029572
-0.156298 -0.039754 0.156296
-0.123398 -0.187848 0.136706
0.184333 -0.174472 -0.263668
0.098636 0.116169 -0.021409
-0.057397 0.122170 -0.000115
-0.166463 -0.105892 0.178648
-0.153562 -0.170152 0.182184
-0.079455 -0.057815 0.006365
-0.179143 -0.071627 0.220665
-0.163197 0.044949 0.257383
-0.130297 -0.148253 0.149975
0.121450 0.125471 -0.018128
0.037953 0.151741 -0.017083
0.054502 -0.199170 0.003793
-0.126341 0.099036 0.032293
-0.126694 0.123308 0.064540
-0.185665 -0.153633 0.309409
0.129843 0.154013 -0.013052
-0.099054 -0.149243 -0.070774
-0.154083 -0.014283 0.222746
-0.169596 0.069087 0.313057
-0.134198 0.208713 0.101629
-0.152355 -0.177817 -0.370135
0.183219 -0.185389 -0.019133
-0.081511 -0.047463 -0.018621
0.098340 -0.129994 0.005870
0.061978 -0.080153 -0.016437
-0.129247 -0.167524 -0.228780
-0.198245 0.129339 0.361959
-0.137542 -0.163445 0.084668
-0.154642 -0.085184 0.090495
-0.181146 0.087331 0.237022
0.212681 0.003394 -0.047310
-0.160782 0.141813 0.137556
-0.048486 -0.172275 -0.007980
0.210895 0.081137 -0.031720
0.197596 -0.183914 -0.007283
-0.182743 0.184196 0.307092
-0.107972 0.164219 -0.077350
0.046182 0.162184 0.010854
-0.093217 0.028236 0.002183
0.042530 0.119861 0.007095
0.187475 -0.173865 -0.068718
-0.155990 0.070038 0.073507
-0.186985 -0.122592 0.286725
-0.205246 -0.082013 0.377964
-0.095712 0.152986 -0.028373
-0.167207 -0.129308 0.334721
-0.156559 0.044938 0.233195
-0.139151 0.189618 0.222978
-0.023678 -0.158206 -0.005027
0.061915 0.194322 0.010603
0.156117 0.126310 -0.000026
-0.134805 -0.074448 0.052729
-0.170754 0.000760 0.303314
-0.190665 -0.117140 0.323394
-0.181965 0.023941 0.231205
0.100809 -0.117619 0.008623
-0.093160 0.160030 -0.065877
0.017219 0.059137 -0.017356
-0.193820 -0.029065 0.294977
0.018259 -0.127940 0.006063
0.191717 0.175597 -0.186440
-0.163329 0.206116 0.240045
-0.142228 0.075515 0.124396
-0.138732 -0.149966 0.086828
-0.122286 0.166706 -0.178391
0.133153 -0.163376 -0.012079
-0.142634 0.175220 0.229579
0.071847 0.180011 0.005142
-0.119375 0.082905 -0.000158
0.188512 -0.174173 -0.208819
-0.096436 0.161553 -0.061993
-0.127349 -0.122481 0.114093
-0.176619 0.021789 0.188633
0.112078 -0.159919 0.011050
-0.151245 -0.180584 -0.381122
-0.109880 -0.161800 -0.150000
0.193427 0.174794 -0.224608
0.186293 -0.169743 -0.237732
-0.177022 -0.141040 0.255112
-0.121489 0.034515 -0.005123
-0.145813 -0.197191 0.193048
0.179030 0.189205 0.005247
-0.160256 0.034457 0.248262
-0.118340 0.135031 0.001695
-0.138176 -0.122978 0.042869
0.199990 0.181356 -0.015945
-0.188326 -0.071204 0.254062
0.187895 0.166694 -0.194480
-0.137964 0.118755 0.151636
-0.074997 0.107889 -0.000267
0.196049 0.074607 -0.035881
-0.148614 -0.046019 0.184264
-0.165553 0.135331 0.318986
-0.082355 -0.068733 0.001882
0.189110 -0.170149 -0.279876
0.185512 -0.183621 -0.012017
-0.199605 0.095054 0.351824
-0.166650 0.097844 0.315619
-0.001243 -0.114120 0.007305
-0.044404 0.118075 -0.013737
0.020004 0.128060 -0.016809
0.180676 0.174803 -0.377972
-0.112624 -0.165405 -0.265745
-0.199761 -0.122298 0.369348
-0.018665 -0.141815 0.004782
0.184619 0.176253 -0.322841
-0.208827 -0.026013 0.386575
0.106024 0.179021 -0.010445
-0.141347 -0.070675 0.113531
-0.153166 0.175620 -0.364008
-0.112398 -0.159164 0.014858
0.192184 0.037435 -0.044568
-0.134857 0.169615 -0.316149
-0.043010 0.108727 0.006067
-0.008489 -0.119302 0.005213
-0.170005 0.054952 0.125697
0.041371 0.012239 -0.016585
-0.037850 -0.074048 -0.016687
-0.161823 -0.076306 0.162448
-0.117517 0.167163 0.079277
-0.120313 -0.153355 0.034831
-0.170682 0.041998 0.305350
-0.150803 0.031785 0.204667
-0.003975 0.162507 -0.011650
-0.155039 0.034086 0.222456
-0.200170 -0.087827 0.349088
-0.009353 0.045054 0.005519
0.173722 -0.070497 -0.000980
0.179601 0.177162 -0.353378
0.013647 -0.102365 0.005932
-0.165579 0.172628 0.185788
-0.203873 0.121592 0.382561
-0.160173 0.169876 0.161907
0.196174 0.166550 -0.125343
0.186691 0.190972 0.002823
-0.061367 -0.093894 -0.015024
-0.132639 -0.196329 0.170367
-0.180813 -0.061539 0.354711
-0.185732 -0.009930 0.239740
-0.202942 -0.105567 0.365292
0.088519 0.019619 -0.017699
0.093571 0.201911 0.008290
-0.076810 0.008114 -0.004032
-0.167172 0.199724 0.255134
-0.152514 0.073051 0.075822
-0.114040 -0.023259 0.000856
-0.180882 -0.092277 0.240253
-0.055973 0.072337 0.004066
-0.032280 0.132767 0.006077
0.125332 0.019150 -0.019989
-0.175967 -0.059031 0.212500
-0.012432 -0.157619 0.005981
-0.174909 0.041273 0.169602
-0.029007 0.106000 0.005517
-0.179258 -0.087695 0.224813
-0.178339 0.170152 0.297465
-0.191586 0.017767 0.277284
-0.208134 0.048997 0.368925
0.211608 -0.021035 -0.034257
-0.175326 -0.048036 0.178677
-0.010997 -0.189025 0.006887
0.117314 -0.033472 -0.017087
0.160335 0.196264 0.003531
0.168181 -0.189785 0.003964
-0.150813 -0.089936 0.266835
0.193705 -0.171421 -0.120506
0.029022 -0.201989 -0.000552
0.138648 0.090728 -0.022633
-0.076078 -0.038871 0.007032
-0.205297 0.023145 0.359375
-0.091705 0.139608 0.014605
-0.151838 -0.087589 0.257008
-0.196023 0.000872 0.305630
0.075138 -0.168757 0.005826
-0.086099 0.011097 -0.014478
-0.145306 0.150476 0.080277
-0.123789 -0.165530 -0.245974
0.192190 0.090683 -0.005341
-0.096629 0.101791 -0.014471
-0.129246 0.042223 0.015110
-0.088165 0.153870 0.011788
0.150975 0.193490 -0.000534
-0.163160 0.053765 0.269786
0.197503 -0.170647 0.002011
-0.024531 -0.071836 -0.023046
-0.156623 0.134980 0.123897
-0.182054 0.106650 0.262390
-0.043733 0.133926 -0.018513
0.187803 0.178249 -0.381243
0.148829 -0.161106 -0.013293
-0.122338 -0.021485 0.025931
0.103872 -0.188471 0.005151
-0.173280 0.164954 0.245099
0.064586 0.149689 0.007651
-0.032826 0.028098 0.002810
-0.110323 0.165872 -0.185165
-0.146558 0.144297 0.074241
0.194139 0.161250 -0.041250
0.118042 -0.167765 -0.001362
0.009317 0.020768 -0.014611
-0.153075 0.054543 0.135792
-0.073344 -0.170444 -0.009401
-0.046508 -0.190763 0.005467
-0.136149 -0.098068 0.087973
-0.152387 -0.188781 0.248656
-0.156101 -0.163075 0.160490
-0.098279 0.065962 -0.012413
-0.025486 0.024716 -0.017476
-0.126440 -0.193619 0.178875
-0.101074 0.038279 -0.010210
-0.207378 -0.063300 0.393025
-0.131392 -0.088633 0.092225
0.114792 -0.055232 -0.021632
